x,y,z
-0.07223956152963351,0.1929139743064506,0.06576053227447556
0.021821337248326217,0.6956597543610433,0.07366068411209299
-0.046135602610434236,0.04324283177142773,0.22722027552791563
-0.04946575466954063,0.07075433184021403,0.11487136506370696
-0.0694250987656162,0.4487348192817618,0.11248369012632753
0.0630763278640598,0.2731737741643355,0.13308641105424346
0.011272516213275269,0.7209589353760141,0.010702436284869554
-0.046444346818150156,0.6183318711322244,-0.09746880172823923
-0.04771687055341268,0.9413779475004164,0.019552623249546083
0.07425286424387008,0.5552361580686798,-0.14653992018252887
0.026625038178083323,0.635117613202197,-0.006236991423343191
0.05196888461475205,0.42236346412098025,0.16096307003089994
-0.014371224291583086,0.19239111532907172,-0.1375023937248795
-0.11180462745518065,0.4577983398250629,0.05558534513387145
0.12027497131701012,0.502491961960243,0.31736026135245565
-0.02997214520148321,0.2515623848181382,0.17936681236426438
0.044738333977496575,0.582181389681643,0.03640674148302869
0.04594439675806899,0.6198802607724834,-0.12242621673696397
0.01447358572485617,0.7726838897742125,0.040935553265885216
-0.07534994739057377,0.20895450653403067,0.20283317065784814
0.0015396443895554866,0.08690822489404434,-0.2356388957571828
-0.028513418595077274,0.23234496903554383,-0.2353671502826468
0.006570652233244347,0.5661079323700858,0.2756500703424042
0.12992348854563002,0.043951712514475036,-0.21743346321859322
-0.14289691315998435,0.7440588587257926,-0.06737950967435988
0.035178006538605595,0.5339802319969695,0.044014855577351186
0.07410163266106617,0.4963638065755761,0.32837345390087563
-0.056942524344855916,0.8144533913668642,0.0830056515984221
-0.04467136847456776,0.7051764188003439,0.18920710999653848
0.04843494735145109,0.4896383152518459,-0.0014423146966753841
-0.08489685093807939,0.18293447907132188,0.09809264762659206
0.08695256137903706,0.21270170902577035,0.03198205402382198
0.01941357808994504,0.4606187666717481,-0.3648664212960342
-0.15358106347890382,0.6971846361730409,-0.056695794116786796
0.08885268408676614,0.2735774368414595,-0.04711061974874137
-0.06544498013014605,0.0017751593154211884,-0.2349069228685274
0.06180100672393091,0.32522256225189794,0.19823932409827136
-0.02291980155026757,0.26456194012895934,-0.21430325301921274
0.027381743400615048,0.8169203657518244,-0.0980973446544301
0.10254952636552853,0.3023070108084364,-0.17370345494155576
-0.06299884610788234,0.5780867112805065,0.29462153411723385
-0.07069853363676028,0.04160670570080303,-0.23597384284612807
0.05672251431735467,0.28685114589851246,0.16205343614506484
-0.04985606022478802,0.834571866411011,-0.03644749866754636
-0.03291437204436079,0.6640983557127829,-0.22694700948914265
0.04022653195935848,0.436238506998919,0.11626898278506823
-0.00013212198669393903,0.8196206862347315,0.09700100998678539
-0.1079891935644663,0.3744218609840895,0.16188050330040918
-0.09601217605839679,0.36973095020048274,-0.01963549906641751
0.035055779097819255,0.8184021018015687,-0.00944793499398795
-0.009157454463310073,0.8129392404094739,-0.05656368046292597
0.09220359829526184,0.43660167819852164,-0.14384920525699899
0.03585210590999421,0.7420181408151126,-0.07646749254039409
-0.11617167639071593,0.47605045644290944,0.03990153551797106
0.024695641775823826,0.470748485009549,0.19199013260494036
0.10443071381148959,0.0,0.22015420602679303
0.00023502465374291605,0.7009726872247888,-0.24009260765057527
0.11863721993736999,0.5744904165672446,0.3470766856397454
-0.12010124071550686,0.23592084785996248,0.09240459992723288
0.15157845015649535,0.5648780815746374,0.3069731120791066
-0.09262521732271331,0.8277374845583603,-0.09502997299334695
-0.07142221656746646,0.56930756890663,-0.2904188221787464
0.06567780612496105,0.47861462311395436,0.00043106408601514823
0.11567809992315149,0.21979871944665708,-0.17602147150234984
-0.09461805313991173,0.5569749519866465,0.2693081873028651
0.04736405098826948,0.5621722481596569,-0.06991128231078853
0.07557350995125744,0.060826674420995826,-0.2319958601705295
-0.11474410527115932,0.6813763228460274,0.08127088945049385
0.09052538587816993,0.0375887446513942,0.2679815185943802
0.10468988185015211,0.1810780944316428,0.05670743734687844
-0.14670220749613547,0.6519435457163716,-0.06295336853484268
-0.1277493967386334,0.792854727643073,-0.21117353794804664
0.1300808908192777,0.1876458473866417,-0.1388839047206929
-0.038464046200237495,0.5955647391174294,0.2915367612968668
-0.12793,0.8075709010760677,-0.18867755440882855
-0.09768115358073755,0.2827510777371032,-0.10208172554698589
-0.08864067470717454,0.9222838742523528,-0.0811065775055656
-0.07949075082055033,0.734012758953828,0.23080317086692342
0.06216274281872343,0.6691340680577851,-0.1861640144275585
-0.09557662513417242,0.6371193105296596,0.08962439477295081
-0.037992235445462444,0.6289392383601794,-0.044903649374103405
0.09446248746905249,0.35618352966889605,-0.07066954183910201
0.12509303166295543,0.2193875418681348,-0.1390845532684814
0.08761673908645379,0.3231882896165156,0.01532518744232872
-0.05887029830104544,0.6387532982031938,-0.2385515313170633
0.08868388445299401,0.26109049739353696,0.07670952055495914
-0.0031139174029086933,0.7980785194585212,0.137336390937285
0.007169034184975589,0.26546856505121647,0.14247958765262397
0.014252788593081808,0.056932150828851794,0.22073421174947047
0.06562988382952031,0.4953017017169293,0.3135845366615667
-0.07241997399106402,0.39859145822567993,0.05622258198996774
0.07723559448299441,0.5662063531900547,-0.23426825333786377
0.10936093384201322,0.8276648604430978,0.25664216109888544
0.09710336981416702,0.1828879069066324,0.11137530472550952
-0.0006935853139446724,0.6442613045195236,0.1846785857427029
-0.08662080160890456,0.840961875385801,0.001730317707761879
0.07312784782460767,0.44559766978607,-0.016492560265667144
-0.12793,0.8041410910680797,-0.19628922518243555
-0.08795177094014514,0.11415337453440078,0.11283435812028643
0.04884262787333492,0.6247142735862691,-0.039353561285518396
-0.013636658070874344,0.6247365724109029,-0.2911668857704687
-0.04648581957580436,0.6875872665206951,0.2025890424042534
0.044366400789854966,0.5987534701061503,0.020820467083004168
0.0010500547177491083,0.5527652258468344,0.25004616345852626
-0.08303676503495767,0.8141685996384385,-0.09908167192444862
0.027577569588900848,0.5774281577088096,0.05133595923483655
-0.011179357859506606,0.7499448611224382,0.1907719899676706
-0.009349583385957025,0.7219623069034362,0.1687006510835381
-0.09389076692872732,0.25363357743180465,0.019341207219752354
-0.10249635431678336,0.5825656077020674,0.2772031519774221
-0.024931208069808437,0.680554246824674,-0.2116923541858588
-0.01244981991679419,0.6617221077992809,-0.0016206271860706167
-0.1180015691971339,0.7426746808221553,-0.24442147340678763
-0.001417685221872642,0.19065816994054693,-0.01881456386770297
-0.059506263449825125,0.6242100736735169,-0.24807326866443835
-0.07522468708489641,0.8792928146099133,0.06544511691659169
0.05954397117951979,0.6177294060229099,-0.2149413030683433
-0.05580431893679488,0.4630090138109838,-0.016449943650444596
0.03927226442295583,0.755363408277028,-0.11531057010931
-0.06838379438776851,0.36934078758356054,-0.03859997710231741
0.08470622775756687,0.49577010827520174,-0.23287300696003332
-0.0008671263580681179,0.535178675591994,-0.3695567489803148
0.10019733284675392,0.19419303853171155,0.07263433335586962
-0.12741464805461256,0.7689207580412396,-0.18871174107642824
0.017122342906172615,0.8168529486088872,-0.02445357653344904
-0.11950121689174346,0.6686235757451207,-0.15293830928340993
0.0733370257770077,0.48453337113943007,-0.1670708495307316
0.07029859214645737,0.6328374262194549,-0.20437821029842695
-0.13094731730823655,0.791550371363128,0.1961608953435836
-0.06766200068173149,0.6289267223447605,-0.17102095773985035
0.04415661680474331,0.43316204168519157,-0.3470894769768665
-0.0828175832484758,0.6751275036185989,-0.23848465199090924
0.08247761108343998,0.4263174845488018,-0.06237470651220134
-0.01787651017006968,0.3446107118313943,-0.34155984062770967
0.060108263870761444,0.4288446273991456,-0.014584044392659118
0.10490348793974497,0.9294771081126304,0.2925830233605054
-0.08236467548649798,0.772788722787651,0.054030455568066724
-0.017504218650576428,0.9847466147232278,-0.0183765264635009
-0.014330561279785232,0.6438840683641387,-0.279425059860022
0.11584300139040701,0.30371705658117176,-0.16627217985731868
0.09468286820258785,0.3969553018852394,-0.22121153461442725
0.013939740516673313,0.7615405188172464,0.056957154562752715
0.0034470109723518114,0.7470769845034013,0.0412375867641427
0.012337708039277154,0.8139013883396299,-0.11307774312515699
-0.007188337910284495,0.5818894003019105,-0.3027823558989977
-0.005293577687922916,0.8110908319000445,0.14113090864443412
0.005714769118865148,0.7862559248582642,-0.2548242935669819
-0.009384327017874337,0.16820203246640575,-0.13415879008730583
0.0930340181048023,0.4241524160970739,-0.1359821869353767
-0.08567732434277234,0.8869081330724415,-0.07340559771466448
-0.12148852413667419,0.5019008568974943,-0.014780843422115528
0.04636311039742623,0.5010293279822339,0.11412065538433969
0.0269503709094353,0.6778589942685819,-0.056483889877316285
0.08525784054051692,0.4390703278464096,0.3197856955657639
-0.018451394055849547,0.0,0.17656082147292657
0.10561604094626442,0.3234859869309674,-0.1146170379197609
-0.09965715975862272,0.3611537631453193,0.019538429812235386
-0.08630165602168308,0.4134684495372192,-0.12469172961590633
-0.0454978270699557,0.5572792930812878,-0.10477527630302705
0.004482726747536671,0.7694680225097213,0.01165127615720496
0.014382235780758793,0.7911779106885494,0.02125353801522034
0.07664354015182301,0.37369952003370416,0.03816056104063589
-0.1185757529949808,0.28512519616090665,0.13918202175376926
0.07891717303510055,0.20184161249046745,0.20738444567748865
-0.06127887300955242,0.5725725808832938,0.080698259595652
0.016032949955387295,0.9027563476581967,0.055589702051990736
0.014129009777881202,0.5518976108538275,0.1789432811540067
0.11595850294892353,0.34961839072528916,-0.22771419606006657
-0.07268306951989527,0.0,0.14193685281468593
-0.115332146465517,0.539745327950007,0.004975124181219266
-0.08551078312173993,0.6615344708693879,-0.1501196425313215
0.0643670276925162,0.5614088704200033,-0.18766184221445412
-0.10811258233614311,0.472354539067884,0.04149961334514079
-0.14406398075202473,0.8226898130562166,0.13660441126688436
-0.05047662510415157,0.38316233301220076,-0.21850252015272587
0.08534017742939429,0.4053203347077558,-0.05963351259348623
-0.06951090870011864,0.5934068067240333,0.28502869468986786
0.037315273805631696,0.6072819420005116,-0.05378770501648439
-0.019207627970131445,0.7519678161191866,-0.2446689031202784
-0.07584960195056195,0.27504507895216446,-0.14002141646379485
-0.10710716048123865,0.4154855277240289,0.11706074721878805
-0.08260205215841473,0.8337509986950637,0.0643970700669767
0.029461573634065735,0.5375335725923179,0.08212792134047989
-0.10108224748879754,0.31227643809310063,-0.018455909402942117
0.05657266065357325,0.3530680426027744,0.09203057973164958
-0.10447120836270943,0.24371204209331346,-0.0746383215180336
-0.07233088985807734,0.8754653270543375,-0.1335137936375292
-0.13587057612176562,0.7717646532461521,0.026915296011622996
0.0906811609978623,0.9155051594596254,0.34584329145533194
-0.04756153486418669,0.4792428850360323,-0.09394837099571987
0.07486918789309763,0.5000046604120625,-0.08954635432639202
-0.08967246966425606,0.9279389079874412,-0.0742533151366945
-0.07115058828180805,0.4018798716243446,0.04751548291965846
0.04564429751922486,0.43949251519607047,0.0727338496742721
0.02284014020690151,0.6931668851074401,-0.04335749852850773
0.010067472305807249,0.9278544365398257,-0.09237849477154328
0.0714809051011845,0.5066777425297325,-0.07256986649102126
0.07366635598277571,0.4811071463985819,-0.16566183907178872
-0.045866562996346574,0.6019338742171504,-0.09906379430608071
0.019577415142236636,0.38439001077828105,-0.3179333456121629
-0.04244404947008643,0.6611941127079058,0.15987371634509487
-0.11086532713522729,0.35399147285228655,0.14382467696913387
0.0535690624581663,0.516861802351024,-0.06417757649376213
0.1348726490540963,0.5613942495347717,0.34599242773763156
0.10062395397535168,0.23966121357589698,0.014565198129243145
-0.10774457931907476,0.4350767078168569,0.07967417183263871
-0.11862091153526165,0.6558675983541251,-0.1157352191780977
-0.0742737664412684,0.0,0.21699443385420586
-0.1552432140182412,0.675017240765463,-0.019813179645639847
-0.09059219286708399,0.8630408111920249,0.02318372497359785
-0.10019840144382082,0.3805847098473199,0.0404018457625986
-0.1197633099287494,0.7744937478385298,-0.06067187199131988
0.05202749006906647,0.47312658301539806,0.1047525514198497
-0.012285541683165833,0.4944492648475,0.26040063772961347
-0.06012420043974352,0.6278297518952822,0.06444866664438181
-0.09300137153754412,0.8552105611986258,0.05013394783139845
-0.023465460542889505,0.8150245193580044,-0.1886315129782575
0.08378976732977408,0.3793171097650744,-0.019546887469824442
-0.06066641215814579,0.724519073201146,0.2323037098531743
-0.02295559331057557,0.6510343334734172,0.15119595246424888
-0.05073044368403864,0.42736906926481877,-0.14219523653609575
0.010219265499133733,0.4987386654803459,0.2617350254033
0.07020507043083256,0.43489205635844197,-0.0915383901289
-0.05036715323074302,0.5718631579521385,-0.27377117226116054
0.010351590402622526,0.7642659127016544,-0.031001229775678096
-0.10339090322447109,0.717231390396959,0.07834733759723063
-0.047260684451274876,0.24545631291309694,0.20559722701787428
-0.1447376319353968,0.757355146349269,0.07389697864738615
0.0690486528155643,0.312432110733305,0.04897558223556797
0.05302640027294307,0.4952310779878383,0.07339582313270736
0.07917273943003399,0.5860347307482586,-0.21622337614973675
0.09383827082942615,0.2487094060554017,-0.054982779432209555
0.04059699726811355,0.4775442788659585,0.18069073032826632
-0.045720669429220394,0.8052429031466722,-0.09418585325563691
-0.03386178691897303,0.5317402605161562,-0.3734047729406696
-0.11300424200380463,0.26314815233620753,0.04202299301939083
0.1293686790125615,0.1907955075004534,-0.13673165296859913
-0.05348372521399833,0.7472853037390901,-0.24102525291018387
-0.10998720827744961,0.24769186550452105,-0.0084008117597901
-0.11342216321995448,0.6397232700116261,-0.10724048095922502
-0.1469173718027081,0.6286127435126525,-0.009158810747269368
0.0444988494368899,0.48473663488347285,0.14520588082264899
0.047268672561596,0.5149540571291775,0.09241452600333733
-0.07408839089882238,0.23291382678817282,0.1705145018583008
-0.039317500666573676,0.19101801508532434,-0.08140198775454464
-0.1454014535327896,0.7352267241142292,0.1794854385632262
-0.06215116093812796,0.00017316665369728878,-0.14691129301043743
-0.11463870006448111,0.21305052282789122,0.05268216065601215
0.012178566496914803,0.2717404688413527,0.16908984393985133
0.052930975446041695,0.6023129445757098,-0.04362871487138731
0.0960367640318714,0.876816666849941,0.3452464352791338
-0.1561563735997684,0.6640987471344778,0.15706505507085666
0.015159417137180727,0.5727181881836557,0.14804636538908292
-0.03368879734325113,0.6296675035399766,-0.14707445533152425
-0.056546901465904666,0.5146150511039953,0.029037299219662117
0.08278448518209297,0.456029848891235,-0.09763227582471837
-0.014639436678474296,0.8692423753399297,-0.13089592926300536
0.012790802854784759,4.1001776746944904e-05,0.1714420070913894
-0.04618254352728453,0.7236182955561586,0.22008273950863277
0.0017194591472909897,0.19244869693050032,0.05788366641217703
-0.03400329714510169,0.5116746097472673,0.30902485534108853
0.05496030307418961,0.41773319482780524,0.03333487980506655
-0.07623313083005333,0.670435462626146,-0.27660226203034255
-0.07332758229106158,0.5281356448399783,0.29199847665416573
-0.006320718967581143,0.7571798422165117,0.09969356043359105
0.018447308759680127,0.013566737274455478,0.1364232280864593
0.09806522029427668,0.4802398488751965,0.32721268558441574
-0.048542828608595136,0.8159172811031427,-0.007268690751357018
-0.03456698730493786,0.5802481448023717,-0.2725320808013642
0.05171915514057643,0.05166160334674995,0.23502580696728007
-0.11946191745599924,0.15509962290658152,0.1501983013627871
0.02361704513143048,0.49310396957191815,-0.35541333885533205
-0.04497412103496489,0.6659397281496094,0.20709775197002606
0.02081884229679333,0.5728126319193498,0.10626915681356056
0.07543905878011774,0.23349996982958943,0.08978066996669926
-0.048675733000850485,0.597373423975561,-0.06410422143861229
-0.0583638769747854,0.3675071172232146,-0.16280879443738383
0.06790648072612043,0.29179387250081634,0.07926266653204955
-0.09743909281417544,0.41413023807274063,0.005107090731799949
-0.04643080842789341,0.603749291922936,-0.09292985961631246
0.011054002337419985,0.6681431655901354,-0.17975803477759855
0.12570378586654657,0.007434394374363357,-0.2922428880362994
-0.10112833272370496,0.5537456122618823,0.04304835186455291
0.0938716303833553,0.25082930865596065,0.05076618352507886
-0.04955575560109784,0.2505207565783413,-0.21465555285245289
0.018842895023867684,0.6961650421844897,0.09415775161650372
-0.10392174743243612,0.285413388341427,0.1859033574959069
-0.0838480132342573,0.33945707550234827,0.07652394699751033
-0.09218346558612485,0.23379918142787928,-0.23318377159376086
-0.11895936311821444,0.7256569847904377,0.062390015717431954
-0.03440800437793447,0.21550189002808756,0.0033724235653941337
-0.09963143047764192,0.6727466395620948,-0.1428505031903796
-0.10783512233996055,0.3957440041381509,0.14380683322393537
-0.05215336413500331,0.4825076071565743,-0.03743804319888047
-0.029572845616733297,0.0,0.12488239165669515
-0.006376639820574147,0.1282411480052209,0.168764477110295
0.08090085730411645,0.47356028591837496,-0.20795169019339968
-0.10295439532856283,0.5372044779403479,-0.08092734422762761
-0.07580809195156535,0.21640085057782046,0.1476690252881554
0.10439397623020444,0.8407010758198522,0.2700391467538312
-0.05482016212721007,0.23616797172299817,-0.18026172116445352
0.06524875204263789,0.3313356634558768,0.16715049044566702
0.1394179795577709,0.001953,-0.2518263920833358
0.11962389544762672,0.5201212893797663,0.35022082037734514
-0.012607397369808543,0.7757339388075736,-0.2512988098117861
0.08352620553565245,0.44838410469053724,-0.09446929081427857
-0.08850386914070474,0.7166163131168285,0.15415673395587098
-0.0891687619834467,0.42774310583080494,-0.12468619932901231
0.00039318513960260454,0.8211839235853244,0.06345662880793372
-0.0987230477968177,0.2500839684933802,0.06858099716174976
0.07257897387242168,0.3257891122619673,0.009909089584637931
-0.07288218987917534,0.248131044097577,-0.2317108576456857
0.025202640880437895,0.6696376625656508,0.07836287412252028
0.019831446513651034,0.6176765832129226,0.17344098076456319
-0.0743821300238816,0.5927131485887497,-0.29217699777298395
0.0415846877303917,0.4946284328575784,0.04089776623453814
0.09332283639895503,0.3739871590909688,-0.08226525318810349
0.10475397606722707,0.5474612431556454,0.3589034309004476
-0.11342320498895316,0.3089592705185275,0.11968277935543663
-0.014847356031163605,0.8241910159199918,-0.2162179604056891
-0.06035630936912646,0.8138221820499073,0.08679323070001839
0.007865625345934438,0.7919565323928662,-0.21413218783271262
-0.051216168857064905,0.5019944628522297,-0.29227323230435864
0.056026409115117144,0.0013766417246154758,-0.2522951333364393
-0.1518108836806782,0.7212405765192323,0.028477463735881118
0.07817188460002514,0.40270521022088507,-0.11228535432040598
-0.07969983660462762,0.8268108447750263,-0.23789781963749349
-0.0823663941675302,0.4640116021320517,-0.12120931979455998
0.08847720607159007,0.5560081412739917,0.2963030468601144
0.06118976938323567,0.3133239432285953,0.20460976686365218
0.06963920851896578,0.04219127618940338,-0.27290213143961095
-0.09090597952155932,0.7503612508367822,0.17377656591896357
-0.053257181040626884,0.616244873577178,0.24587968326787182
-0.07795588852212881,0.26782409840140275,-0.13155735088137957
0.014198435599502762,0.7408764866305844,-0.11218474478978395
-0.01734403055115607,0.0,0.22959888246612697
-0.04365733563525716,0.04461109590977392,-0.14273385201657413
-0.11859457148450182,0.8190792532368237,0.12965652190750895
0.05859853402425616,0.0005131774975164551,-0.19535267181583343
0.03495408237177923,0.8676087586363823,-0.02434371611739864
-0.09046851776676526,0.9405968869549578,-0.08083720830775751
-0.09851853294595429,0.45202085858122,-0.09838638611087105
-0.07703366470917815,0.3075177538965778,-0.06025627633571348
-0.02033259035975877,0.6428348246306572,0.04377173938997822
0.08509481180814185,0.3057903364601601,0.05283632892979653
-0.14763542766198273,0.7041362612841028,-0.07840308486954717
0.06699850857835306,0.4912338880519337,-0.023115049885990335
-0.04704068553727161,0.47513719815088507,-0.10345377633632634
0.10761714064175049,0.5816608354531337,0.33856762051770306
-0.010351007885829225,0.6311594957710369,-0.11344397585651146
0.027148100362227166,0.7154478086550979,0.014259608397039714
-0.07204945268361415,0.001203622294016605,-0.19724421401770798
-0.0716898152813724,0.4747699908677477,0.0771906061967488
-0.04203751382832959,0.0857675846644792,0.2061044329502188
-0.08930146387560614,0.1012918661935305,0.1939976149262426
0.0024385753255444682,0.6630927534522661,-0.1567849870585622
0.03858688089066042,0.6574179314154814,-0.11718576109013777
-0.07690449322783693,0.35488787391860194,0.027874585006131852
0.10802129286103132,0.9054579937226054,0.2818408701794196
0.04062304694916341,0.5209910512421007,0.01846406686372279
-0.04776853155111017,0.4561903919755586,-0.12261639748623195
0.04958679749311241,0.5319350420283508,-0.05270865723459292
-0.11508311083280373,0.6906077389794708,0.18639092527842935
0.006965343458364507,0.19179289562716526,-0.014219759746067734
-0.11414293813304452,0.2191439990563917,-0.007111844979023063
-0.029358670966958583,0.5661566557965018,0.23040487115120376
0.08805694017846799,0.38160383683372073,-0.15839958691477588
0.02878864639739752,0.5236048467664624,0.10267681981505163
-0.0898910360438756,0.3714639659126265,-0.0906390664168186
-0.07501751316723804,0.0479843196836735,0.21090813825477087
0.026903529456019912,0.7419619849755729,-0.013154751979781887
0.010099969978096415,0.10308919248375953,-0.21485124491497876
0.1012308240558561,0.5298617856713166,0.31344866630456764
0.018950707265342648,0.37268972529988154,-0.37847515446757035
-0.0665724497202089,0.33751539723835594,-0.13150315246334843
-0.06324443925501849,0.48450068400054536,-0.12956561450079504
0.05842274393145195,0.2510764641763862,0.18958609960650127
-0.15479549189486555,0.6678748627736331,0.1353575609422222
-0.07250244479401433,0.15009471673547217,-0.22626459414444433
-0.023103560101660273,0.9704734322503195,-0.005772229485181697
-0.15226021252538824,0.7114496357859501,0.11647591168414938
-0.1508813362006287,0.70236264705475,-0.06607553990603965
0.022197719766414326,0.5162064132413473,0.15949009134614767
-0.05675140628312918,0.0,0.20361505052458156
0.09409327536332499,0.20930872986826043,0.09535171699107156
0.05241204871109587,0.28964396071737325,0.19066553685636897
-0.08631761156624806,0.8187370178006411,0.19689656449053744
0.02612645276956168,0.6929606893861507,-0.06732442391935572
-0.08378979107330178,0.24035416884812322,-0.12102363509142817
-0.026284514871370755,0.92407660318248,-0.09753652323288461
0.037002338350141606,0.5944432811441207,-0.037109887426770294
0.07487173825907192,0.48556724637195536,0.3075198422789175
0.02453315327187889,0.724481219341758,-0.09088167006533238
0.01808695099499911,0.6843345125199587,-0.18925079663555025
0.09910877551099218,0.765625,0.30850744774794847
-0.05162554309175036,0.5584943487247692,-0.027768920851258636
0.09705621620808644,0.23296159799464178,-0.06039185408388764
-0.026306562397058565,0.6585093947866292,-0.21363328961135078
-0.043943811063913985,0.0010509021644348495,-0.19718472171696272
-0.14929295287264863,0.7192791479333451,-0.06308701091169845
0.0018867309371295247,0.7472764593397526,0.1578295047075424
0.011913455728362525,0.7771958758418176,0.05407191195267383
-0.06636278391540981,0.03971016847786427,0.21997617642724698
-0.05162415971805877,0.21616117323726367,-0.22910154726165638
0.007901985610836717,0.9545510610604918,-0.016297151446717402
-0.12899386179694836,0.8144266591303876,0.06566243292240832
0.14752773991144164,0.5704139063521686,0.2957569834225267
-0.07228550544335884,0.39809094947535195,-0.20476317495103794
-0.15953698188584553,0.7169538026451439,0.15260345408157228
0.11350338714896799,0.521495816295953,0.28728240135539873
-0.12635923485807343,0.6857806891605805,0.18333467831769862
0.03874124381341625,0.5931122197886369,-0.048423595374142425
0.08292732962882501,0.4716988268223171,-0.11608882244301764
0.11166050181644523,0.035341498932332086,0.21427547576560593
0.07105054538956004,0.5197545481120527,-0.1892195290580757
-0.07504698371093224,0.8066060314652774,0.02229411961090208
-0.15602686699529233,0.7027657857277003,-0.04292858194270857
-0.0632550487169534,0.31166487395981135,-0.20893923162768557
0.0038764662744491447,0.9699149225639875,-0.02189348708469639
0.007113501845807118,0.20079961629344628,0.18307036301425889
-0.10729885090028932,0.19420631222406284,0.1281369268047233
0.07346982990379058,0.34678725898986923,0.09094748471829808
-0.06925330317020612,0.6012234632092057,0.2795157275270998
0.0731300977802847,0.04281733267767751,0.26054793002926463
-0.12224883700132524,0.4853209184662112,-0.04109826920817115
-0.033016951192910926,0.7118829680360651,-0.27072008038858575
-0.10823487998810134,0.8037737336356492,-0.008556797177419183
-0.0026527377923170337,0.660506474582853,-0.1272239988119187
0.018007903356346992,0.5574398511883212,0.30743428965591046
-0.103238144715796,0.32956461941946574,0.17790233701119335
-0.011233592629137206,0.4014434739978626,-0.3701159898292816
-0.11708208382677766,0.639825807358026,0.22138838503050234
-0.06952125118120614,0.37572678985133057,-0.012384413377662828
0.018798121807365648,0.9095723208643238,-0.10762037547988425
0.07121393848796777,0.33631965181369666,0.11950874996765667
0.045095469180492745,0.7767575507399905,-0.17998596457415034
-0.11193252829366114,0.10672018772426335,0.16804263177775014
-0.08067363806424878,0.8375819175371361,-0.08003844774193707
0.1321563373778594,0.17975391278230496,-0.1516014602647846
-0.05103725943706953,0.4770589033254133,-0.054024373138125775
-0.12039156030252993,0.6622653717635913,0.15207590375068059
0.06967109845038842,0.29904551599380075,0.059113310321525336
-0.09146216812318515,0.9365672403216001,-0.06067640137107025
-0.030273,0.8147155472592301,0.19930555449566054
-0.041621367355738466,0.7372344467509073,0.20170726325126753
-0.07198658232785284,0.6610814498006221,-0.2875209417943766
-0.06262632404945505,0.623584911661601,0.20161362223539672
-0.0979321911723266,0.7057496148246687,-0.2350022489904918
0.10297129652040021,0.3216612417721356,-0.09354292058434643
-0.081221125774029,0.38174582848158106,-0.18798465622637028
0.03181704397464869,0.44832350515917013,0.16465987266588883
0.11808810392155775,0.24425015342562162,-0.21927447231774608
-0.10896804259858901,0.6348992351615904,0.1216177623660167
0.1105207760150289,0.8988291984508652,0.28085972438945644
0.015161754584225412,0.12646803367847742,-0.16796597585289855
-0.007497851367219942,0.6343185654997081,-0.14017812579463684
-0.017514078312234643,0.5975539653147013,-0.27495040813815613
0.06612740877512448,0.0526640934179843,0.2336329714123942
0.15313614121410213,0.001953,-0.2605582199840806
0.008106331809235492,0.5960758199215026,0.19482447104789155
0.057875735131189154,0.7306026286397226,-0.2236625846832351
0.0868816688334068,0.17872441270881512,0.07500997079085447
-0.0635076214608732,0.031428342117692444,0.10294220716257883
0.03337044806175245,0.4596856090519442,0.1995602740202485
-0.011802113283898186,0.1913510379507868,0.08432346198172201
0.024423029257783536,0.6354798818881647,0.009571257950759332
-0.048355613733578426,0.548950933574601,-0.06872017188551129
0.11298576132806137,0.3072519498988875,-0.14962920164635463
0.07830264838962864,0.3902892977883977,0.007761389307641586
-0.09723239271361635,0.5800053420443362,0.28010744173548446
-0.05208129223380677,0.8368351661876368,-0.08839298415227187
0.06986902510784976,0.47979247513266426,-0.13775791128766549
0.04476485356666516,0.8012050328296316,-0.20452053028820671
0.11092834824509974,0.2445955860892306,-0.06512397116577442
-0.050680639742390184,0.4956388228812884,-0.044020069038416584
-0.005444460348848393,0.8059417290139944,0.023426032787897746
0.15287491892827212,0.029749281072271833,-0.21620632880641452
-0.09062714985241567,0.6271600593350563,-0.17399954924096417
-0.06612226522329233,0.6863465423582746,0.1407710897261261
0.12535070483548752,0.044984850528015985,-0.21684938707083481
-0.06939743819492583,0.7918243157410719,0.06731618677463658
-0.11616413542660478,0.21375781049436007,0.03730294095744768
0.015542631060607465,0.7115655741577926,-0.010222866381350254
-0.11770677797676311,0.6450962782050864,0.09670314128422701
0.020799624861923702,0.7898581151162801,-0.022655692218701146
-0.11088781675656077,0.7010807844238113,0.20588513314180776
-0.10416158082313985,0.29272019566635005,0.18474807844927935
-0.07257316521863073,0.728610072769195,0.16597454891424424
-0.09622249537771259,0.7195092293379519,-0.252483267299899
0.06875201327747983,0.3832278429187401,0.08535118385328215
-0.0873766375861277,0.3166360237097389,0.07032199914254963
-0.07247826094711324,0.7143230522353423,-0.27886298884786775
0.0878527811401128,0.18031181886052813,0.13507456065905155
-0.08579168713846363,0.7109838054632138,0.22423580524499437
-0.054384913946569226,0.2080556762363366,0.060341526400622764
0.10701927016382126,0.8317597509743114,0.2982671928716748
-0.05857787852203094,0.46869637521350915,0.0321532340574981
-0.0006887855959940934,0.4266361192112794,-0.3018078181982226
-0.1147568713984774,0.25706388917959233,0.05349405199518509
-0.10588618596372157,0.16513984018976935,0.19105931256083583
0.0040572513500405,0.5501658834396038,-0.3139634166118685
-0.11333730250849125,0.5748092197948282,0.03497142305669863
-0.09324932390113784,0.8493133903942093,-0.03994137767671807
-0.0960577430493569,0.431233689449261,-0.052728708481203784
-0.08920813001537786,0.8469502378414202,0.016575152494834038
-0.05651192333578948,0.5168402468714323,0.24122448411886657
0.024497066154417352,0.8381382778012784,-0.12833348773198944
-0.006392173458530142,0.6676032873383212,-0.060695519112049276
-0.09029854795241334,0.09794684009173109,0.19303852873649946
0.07652549524313544,0.005631885479768894,-0.1601938036229693
0.10880906762061479,0.5838311728867337,0.2729995212208863
0.01769459201020995,0.7357235588970686,-0.23220272858038205
-0.06558703360506175,0.39102018208449957,-0.21135078733481966
0.06990010032781505,0.36809957948548466,0.30643516378269553
0.046359340699503135,0.009426695988699985,0.2857938275276097
-0.09563746011500145,0.8187099255734321,0.131642289592837
-0.10014107698579786,0.43127917290490647,-0.004508143346509924
-0.10349169903484437,0.4225633779337566,0.05914928372683417
-0.07841306606446288,0.8150488964769664,0.07943231601967736
0.03161000844772677,0.6806262468239498,0.02099572378639969
-0.05726162197698101,0.24828005523273525,-0.2085884271221189
-0.08198597554788001,0.9188243204712416,-0.10516283386806857
-0.007122306606481187,0.19133300029089242,0.09801639135915709
-0.05277193965713945,0.5393598298520073,-0.014587031503704065
0.09333217750855251,0.25688114664655226,-0.060291689113839975
0.01628152670745497,0.40559467689849305,-0.37235688654296045
-0.0014744056380996996,0.47791783016991957,-0.2889425608503789
-0.08606075125019386,0.867305541650478,-0.03732144104871629
0.08318817887050611,0.25790550164928827,0.11982606297245443
-0.0949192105048692,0.8276243075953752,-0.2370106026369029
0.10250348693904604,0.36899583837156047,-0.14282253327696065
-0.00642227850495875,0.040523597242420356,-0.14865006586761592
0.058493945932110006,0.5531884309651468,-0.13781285140121285
0.06820209807104535,0.5366076895466825,-0.08224932517474273
0.1233903277595737,0.20814065898082135,-0.21719635548299654
-0.026409877207204797,0.6283760981593,0.07905481804348356
0.08423523702022523,0.21738106711929528,0.04587120208960549
-0.10134030018980272,0.23015717653630027,-0.13375612872736808
0.10718017868946034,0.2333203885338233,-0.025592866952604237
-0.1206145295843,0.26638042136569223,0.13139833995103695
-0.05283655849366672,0.601132911853891,-0.013390215547962228
0.006730590358374127,0.0003834807871823324,0.1977551370436176
0.024348213018562867,0.0012204954882086105,0.2263619038743107
-0.0849137777718616,0.3367159679610182,-0.17761883121592453
-0.07084868368951554,0.7933993742777099,0.2024299111320229
0.08159740128672117,0.18059118037102365,0.17355688204264255
-0.06352166472394051,0.0643456356372142,0.21638244012502464
0.009178631705161935,0.6811713645217168,0.07066457468342488
0.02887085069892995,0.15985765448572953,-0.21714068136521586
0.006571348394497445,0.3267149343411841,-0.3405166030224535
-0.14475738057139176,0.7210473287934759,-0.08392894892148003
-0.12126052607913979,0.7575921903897244,-0.1407875783159035
-0.018319813392446843,0.7674226845783014,-0.12040156160590336
-0.12946923796188833,0.6855376910806646,-0.12517452396286566
-0.11595995387650065,0.7623400734997807,0.07022495054624403
0.13623492753429017,0.5383609176977028,0.2815339513004155
0.03145683681892971,0.6947122271459507,-0.10853404841201164
-0.018612078941824796,0.6618266308127989,0.07597126323826506
0.08597053394465543,0.35088300544379647,-0.003624315720320709
-0.048336811303536634,0.586398934624205,-0.3408073029672334
-0.1332474096178522,0.5844827204881357,-0.04978079845883311
0.07834978568543477,0.3008181986222454,0.31867335886911086
0.08859584506493108,0.4192628092773659,-0.2028887315203532
-0.014164099494108101,0.5734668545863857,0.30626297144620745
-0.1241645995249295,0.2288172457703876,0.1776207703570476
0.0498690959491778,0.4935092920751459,0.09760502545549686
0.03953325745258651,0.7065017653571264,-0.0634490693033894
0.015364164140009583,0.7314282589307538,-0.13377287361122958
-0.036158381393535645,0.8184204627525815,-0.049977575282555614
-0.03807007441362706,0.9832719815545912,-0.04795169658676711
0.0346909322926623,0.05904299241004918,-0.18313986079407119
-0.018756788941065687,0.19125347422327027,-0.032254751746831345
0.11053043299542967,0.22891028017095782,-0.04481252517559178
-0.09695067098691396,0.6299437076441988,0.10984791757981541
0.08945307650459802,0.49749372356260013,-0.1917706180019488
-0.11417552109582058,0.23344700984286343,0.01986181221290806
-0.08670606223119318,0.7567877323785785,0.17804766407675837
0.04066790278546896,0.4396578206360414,-0.33807646653781137
0.0049968315697936794,0.8081039656716177,-0.20726511690453694
0.08102783528980004,0.3223815611834139,-0.04532648916407386
0.08143259934882524,0.41704975505894426,-0.04454158337285513
-0.1134922755749129,0.34737873159143196,0.16645986782677982
0.09732041820639342,0.3194140117230787,-0.050352032338830593
0.12066297055076194,0.1786898449169388,-0.10130748645947574
0.07498369989358675,0.3427047045206416,-0.025156545477190206
-0.09094767721082087,0.13258407909090078,0.19774393856437306
0.015888855805083313,0.10748018809012423,-0.18202252874421615
-0.05502117854896024,0.6321057309581467,0.0889189235620533
-0.025992479335472135,0.0018159096492313198,-0.24971491312494182
0.001148202764404459,0.547028934033898,-0.3644114010482101
0.09342957519635481,0.5888341132542162,0.2820770360153722
-0.07948578193072124,0.8590365420247329,-0.1319565235006383
-0.09373531049696389,0.005146039349047458,-0.16585074229297622
0.07310657853452726,0.059277896565783424,-0.23664476503375892
-0.11294578384161784,0.6347617968148589,-0.10687474651972252
-0.08715178136435091,0.11413183365115945,0.11271927682379407
-0.10250184250449233,0.4970453394225702,-0.10438701378614816
0.06913483655618997,0.5095042312573117,-0.058819853123550925
-0.05709802057881509,0.04119614769070178,0.1088745806125675
0.0006676779719188702,0.9367985558942284,0.02546278436289684
0.05953174966489559,0.5880880169491448,-0.07663342095825551
0.07109279225365417,0.48079902647894984,-0.14738093782055428
0.0672350963516124,0.6179509762680901,-0.16576072831819805
0.11196847365893015,0.3072654503861106,-0.1423188344757651
-0.031249480172029394,0.7062119860055365,0.19187773933102792
-0.01774774317945814,0.785364075454136,0.15227915992467622
-0.14205100020623598,0.727859961450374,-0.09219496200415295
-0.1027781133144773,0.46064752197219055,-0.0979010850684425
0.11940151374985992,0.22742353803060866,-0.1070386191680826
-0.0474467258164561,0.21149339915547996,0.2131249514705458
-0.10875297644837158,0.46093494503097504,-0.03532357263489222
0.06951275223978384,0.4459629105952687,-0.09868419662770878
0.09353993675640342,0.28648013830628694,0.013501771595726825
0.017217511918989313,0.40132869283550743,-0.3074005483675798
0.028172583824694064,0.7115889378326181,0.011259753160602765
-0.09972331619279672,0.05581001849144234,0.12365836580712743
-0.029916494986307055,0.761182275634323,-0.24196422804315254
-0.010530549844627033,0.04457549123304176,0.24356332115891077
0.0782666305775829,0.47094215910928033,0.30509132045129694
-0.09509328922453285,0.3528646366665388,-0.040858887581509074
-0.04973158288007288,0.6554050724140974,0.22135941409717103
0.07971756081804547,0.2924277940553761,-0.003791665730443594
0.03758216935569655,0.5208776139603751,0.15437053641457982
0.10634368572814634,0.1961125852203931,-0.0834938388326179
0.030577294485728525,0.43339926471571877,0.1904969314339412
0.03468755813077796,0.40304134812194303,0.19421965796147433
0.026900005129360825,0.23292567927260768,0.19730211334153291
-0.05517633702831596,0.5204835935672731,0.012700294971922321
-0.11772845048549546,0.5034022541147481,-0.0064210098915697955
-0.09796666393605938,0.5455411327205801,-0.0895318607481789
-0.05625097491346706,0.6307925274918984,-0.31100324535425683
0.10944390311282913,0.9870200102338926,0.3098111602300862
0.10732746220024582,0.8622162905759906,0.3042694196408187
0.08655718576506602,0.30867638313246876,0.039095898344274765
-0.05219360627689023,0.705065130125547,-0.24161384805826797
-0.089281305338508,0.8284278069329908,0.044826985955988864
-0.09454702639492418,0.37668293235543876,-0.03292377317636877
0.00530018427175598,0.7523057050027704,0.1281743760478599
0.07156446438402955,0.5046102312561648,-0.07087196327301087
0.09160350442449833,0.043909749653745486,-0.26996231156971073
-0.0029340405462251057,0.9852544673668875,-0.04376533494969684
0.10253870895769597,0.2967802647653018,-0.16765044033482251
-0.11118740376896805,0.07414299333296884,0.174928662173665
-0.054890325258446684,0.37080858076551687,-0.19617867045864398
0.055121432833933504,0.5047205049078857,0.28441644648441067
-0.10210230407521588,0.7107658152042506,-0.2459199190110517
0.11380072123820278,0.1786326528336601,-0.05775736480750382
-0.11379035997980819,0.5999227903516552,-0.09159066815893485
-0.11031692223753554,0.3350753493762356,0.11484875344338344
0.07081376252386459,0.505832775080843,-0.0668260204589948
-0.11676774259273627,0.5415842510050329,-0.001638698943573465
0.08980460781385594,0.8574230127213365,0.35938318036652916
-0.0028279133326785167,0.7847286280637187,-0.1111558070760901
-0.10824510654918021,0.05316378837020728,0.1880642796275117
0.024782979444124886,0.6736538068691106,0.07691481262292978
-0.11287318085578509,0.5029874952333727,0.02516981908588585
0.08114240238363392,0.2856956003966482,-0.006446942582730819
0.021033503825831135,0.23304557462878273,0.18041800736894748
0.03487243175460364,0.8727930905694661,-0.060418820398616194
-0.06118418246776161,0.5226130825303894,-0.3532114552128228
0.10020730319426915,0.3070510925730212,-0.16250020960393852
-0.11082960856573673,0.812730358823186,0.09702577170848398
0.006557152026062572,0.6598435744285966,0.11384472605320296
-0.05688507872716751,0.6656677975441893,0.23231150571094522
0.037740265813347475,0.5369592726016954,0.33691193084691634
0.03873108092778875,0.533400584619488,0.13248508877381102
0.03786484671213575,0.6833465818207852,-0.026205261520748147
-0.019654288574101852,0.5408518572899285,-0.3677790797050637
-0.10565921940405465,0.19828887294502587,0.1550270106875617
-0.034898022917960646,0.5720588806253364,-0.27526605692101297
0.08085281852270504,0.0,0.2346601372571362
-0.12137298973394106,0.5019875076995441,-0.00949035218719698
-0.124023,0.48924624810339784,-0.029192784031125584
-0.06799506594373203,0.2176394467798578,0.14416017816273968
-0.003936840289341501,0.7445658042731883,0.11043665350179639
0.054965025982599836,0.8083164467348534,-0.07222351240222004
0.02830884399673086,0.8579672715546519,0.07354119594881137
0.02049490983407573,0.7871320101253235,-0.13128840638472655
0.10524982497842916,0.3884764520916435,-0.18426608829748836
-0.0709803581058467,0.8051354232073554,0.20444228868262024
-0.09232051075386702,0.9436977029392323,-0.058447277014218174
-0.07567186627789702,0.41449849414627327,0.12377175420746042
-0.03837051001224024,0.0012323486301662806,-0.21095224005004573
0.04882069301023622,0.6547584750186342,-0.18020838684981114
0.024008622131057623,0.0705931716333956,-0.2058519231368669
0.024079210825965307,0.720326714318884,0.03058872077085731
0.043881661022850724,0.4986917441798067,0.13422958194686044
-0.102398335304783,0.3353260123891439,0.023101066350665583
-0.0565874515392784,0.4369190530192327,-0.17003846064523606
0.041838644442427825,0.7301611830879948,-0.10574943062475695
-0.03356181770234791,0.06129473530755855,0.1142121242875533
-0.036040902415660526,0.6268391101662459,0.11248969140239358
0.021023864393069185,0.0016506300167796308,-0.2563616270020098
-0.004957942812013399,8.787023786461915e-05,-0.14916410695066462
0.05818319575461031,0.48075228616228427,0.05286052753487369
-0.07502831592969195,0.5521450109963484,0.06533850858897286
-0.022772002170269333,0.151496449438162,-0.13564269866599474
-0.0046058927138135815,0.19109123870556077,0.06063596438812896
0.03182560672374558,0.4218562296687533,-0.28793949875291297
-0.05503829523354644,0.14881145923849837,-0.14029882157329027
-0.15688201778252847,0.6919527155220363,0.17930203250236537
-0.14255953483235206,0.7700935125419988,0.03479414818761361
-0.06780235599811449,0.455357211848504,-0.1343273244245796
0.024056533251670592,0.6489639046021212,0.10918744008237578
0.06376926661281176,0.462132031000789,-0.07611806303185464
0.06143685239314865,0.4608137226501876,0.05177825210990103
-0.039993816792466226,0.20126219022755854,-0.15756252230299017
0.07547252133273673,0.5451148925223016,-0.1440650908894544
-0.07755767788679875,0.22164976657902635,0.13810986211110174
-0.06115702568917334,0.3797601669752872,-0.10055398909509455
-0.043868197396333505,0.1260862478643236,-0.14138419573784886
0.08717374199398986,0.04203228540881851,-0.2740634501113286
0.0872645663209505,0.5295225118451192,0.2985843553520406
0.13040756257512603,0.20815784559819506,-0.16486362604001742
-0.08357710219148252,0.05881482323197783,0.21384225455255
-0.09227700183159136,0.23457103785555256,0.1790049800637042
-0.04903902010335955,0.5822252216191554,0.2969861671189132
0.08761656285584901,0.8630929408989971,0.36523098387100983
0.016700034854030363,0.5597831707569391,0.1511839788565244
-0.02990351145919357,0.0003526490077041923,-0.1579241555816595
-0.1136104952974122,0.5738916205379601,0.033609634287794524
0.014586517613926049,0.06848872493118481,-0.18085088791924775
-0.08075120729139872,0.40547587183513956,-0.19118427368424462
-0.04189640522201801,0.25763684582211255,-0.2140033870602206
0.07039700899871507,7.994235333630324e-05,-0.16740039801939807
0.12166406214086586,0.19504848541007308,-0.08393767040605316
0.03652417525925256,0.5929579056156479,-0.03192611500659051
-0.12169957115252472,0.623201952775502,0.04725173063380857
0.01778677467013695,0.6034009133499286,0.0943495519403816
-0.1005902979660027,0.6977738229822135,0.07844878621457049
-0.06882860807658259,0.10496481208428061,0.11198815534199917
0.10779217411368046,0.21019129131353975,-0.004274270314231832
0.11560174648962121,0.19381077581015224,-0.038150185745181864
-0.06898990727042813,0.7375576863653988,0.22648709901065575
-0.002096791123620396,0.20112659534406646,-0.17088985478414642
0.018581758578748754,0.8000889215984642,-0.018224389363678845
0.08729344554261112,0.37498317821590677,-0.1459143686843553
-0.02634988685091661,0.8072513869606353,-0.0177056434955177
-0.0633773700668937,0.9860385480495919,-0.020563966139996274
0.059591449611921324,0.2808519396867159,0.32383399582128924
0.017232777327856087,1.839747470899441e-05,-0.15759639101167988
0.09535845170603423,0.3525180261120808,-0.07304430365520356
0.09249917414594469,0.3388714140707302,-0.03727639508128708
0.08148644704209813,0.440744432520402,-0.17654278594152462
0.0386799419308025,0.6955706641763116,-0.04540267965744474
0.038047646382443186,0.5303439507860933,0.026956150252159555
-0.09501171744487519,0.814240454961746,0.03162056023907037
-0.15296443771343532,0.7055617654904864,0.12043912559834638
-0.1422446683055012,0.7097021368775567,-0.09795322780070878
-0.08288020426613825,0.06770490669101667,0.21069424978086165
0.003505661812635943,0.5095644248192485,0.2511927951227136
-0.09121955796877285,0.2851232609608288,0.054482412626228466
0.047643417039600344,0.6972821632007954,-0.1106401983973298
-0.031934705178015284,0.22319841257696707,0.21902258086966958
-0.0343444139866501,0.1969656317462262,-0.10608475994686556
0.019797315417373375,0.7093181883488531,-0.18463528760502512
-0.14992109876508333,0.7384428694020746,0.011786993508689454
-0.0935054298735333,0.7864091565234119,0.04718606772674935
0.06194732281867061,0.041480477490032544,-0.27533421301536554
0.08868222555604835,0.5789321864611388,0.31366405146863857
-0.08790883516404358,0.8153909982423223,0.07593414597143867
0.07939776346114047,0.40820710725585907,-0.1267851491761261
0.1098267622762292,0.8673765183998091,0.2904588187316161
0.04671958918762824,0.7164456149813304,-0.1251738341185198
0.046503799841883,0.8105648976998723,-0.056736769659644665
-0.010549862889591463,0.6612168597862085,-0.026734218128836792
0.058082933663926674,0.2002841951549269,0.3275632109996109
0.0823413141607701,0.3791539945652063,-0.3440415761869873
0.09881117684125326,0.30698657952783637,-0.04726432601302466
-0.046973233439036415,0.190870068267601,-0.01680141944713874
0.008155360943722635,0.7634189823082413,-0.04423400409806892
-0.017617835633253517,0.17084418167611667,-0.13046672639614204
-0.0786620675195665,0.3299204146639136,-0.006875215304159216
-0.12391990272549709,0.67863969538803,-0.15162810132116603
0.004188064867117022,0.1620871617961481,0.16813207514993722
-0.10505524909888307,0.37885794972020576,0.09818010970741946
-0.0961630927982717,0.8510104256487973,-0.055886647439315346
-0.06359002218854992,0.840045592833293,-0.056880745437654506
-0.031173777064445775,0.8075031622632209,-0.2576051305535211
-0.11194459650836827,0.4626214333893196,-0.00709809313298379
-0.013594871976884183,0.6259194268348459,-0.0876681833428765
-0.07878831898188354,0.23573208307778026,-0.1921008087474765
-0.09047568752494269,0.2647141031921562,-0.20539452793179028
-0.07287617671171244,0.2507085418558173,-0.22538485825286605
0.036709054620411845,0.6714408671659147,-0.12101039028290696
0.04384590761739951,0.6579149796474034,-0.14892896809763606
0.07331375284670318,0.4084928041035297,0.02343892282645535
-0.10410663240316663,0.8164324723210223,-0.19409307614577145
-0.03517344535848213,0.8104215023939071,-0.126425162640695
0.11497885392465367,0.2767468753743707,-0.13005175653670664
-0.07501006621986661,0.7292379358613645,0.18563179869271018
0.11021349624590257,0.20991470942405122,-0.021402330030337063
0.08893433527158486,0.36933249412831787,-0.15124606384205952
0.017398201949458236,0.07474948359017226,-0.21079280800745637
-0.09146921728315435,0.2838382109513793,-0.1694488863081123
0.03610181955679569,0.5042893858580355,0.070453228698171
-0.010065309214547576,0.811914277824528,-0.01637925049546808
0.08460522834146653,0.4616614494194593,-0.11700704886105726
