x,y,z
0.33468031749800087,0.7114774112660958,0.24760906240224104
0.017370704121171476,0.5661581077646127,0.4620039711720283
0.23221139067796448,0.46565319102894887,-0.06463227206640278
-0.011630698696163835,0.18269813176627042,-0.2153036483327872
-0.056394921346845865,0.4946850896337029,-0.2871470334476845
-0.18043463684045477,0.0,0.054889635539667136
-0.14132621535834217,0.856185293118959,0.1636320235783741
0.26353034603107073,0.41649870333782,0.02900208835931497
-0.2876343033015358,0.2908550588035845,0.420953678296614
0.11416917227004153,0.005527410761371702,-0.4264339539543642
-0.19151130714159031,0.0039004947062498503,-0.1892417863595715
0.26786663816100387,0.14781851347985567,-0.07816000407255688
0.3265997515691984,0.6023814314233024,0.01442623556253658
-0.14175784734284413,0.08849542404185176,-0.47258243988464815
0.1293916141301728,0.11015693627396476,-0.09152337191058843
0.3191019949670258,0.5128250054031013,-0.06727300363807572
-0.029768261215780467,0.7760140834746002,-0.20031325880651665
-0.07542973481512834,0.2561978214790118,0.3690662316997367
0.29488694416848876,0.7213091802019191,-0.14827605094438207
-0.18242229052435321,0.20023811715072462,0.4099424575285558
-0.24624316927253306,0.16558838856440206,-0.4201969822854464
-0.4696810449641396,0.22466900127745976,0.24260673402214783
-0.27616219289329225,0.21345898713632136,-0.39791478632114524
0.1039525751719691,0.9000353570964565,0.26312777955729266
0.23507651853485229,0.7596231994048679,0.33650248960838336
0.2841591117852039,0.5946381463633208,-0.2034532194422409
0.4681999128036535,0.07228318690506425,-0.30575980759071714
-0.43239344445487066,0.5510981338287443,0.01101784029484014
0.28937353851957787,0.5656101820040801,-0.08185190486199068
0.3197879050195298,0.6804928233262353,0.25616595000576653
-0.27126203336359606,0.7011821449026401,0.2555886494841329
0.06573581670218363,0.17734213665859194,-0.17383747268872743
0.31522055265996024,0.5573888398366753,0.14336672747047244
0.15819103092679032,0.9318022526912134,0.29157717146690654
-0.04857267299636504,0.8451709001463399,-0.11454231190092759
0.15514137501166858,0.09728955128874872,-0.037356582451189016
0.2241609968590888,0.6967600532293674,0.3421474835908956
-0.15200009406707232,0.009479951141969855,0.0636180914832349
-0.15438489286400547,0.30316498192737906,0.36096240467368107
-0.4682780316087402,0.3421431117085902,0.10462456638256565
-0.21254690884928862,0.34305203726702715,0.38209749419616
0.24905875964262342,0.9338070988704633,-0.18535450085195115
0.3114768138263665,0.46204425078244354,0.15810890900807684
0.24647707361296542,0.9505682771151303,0.3471004362171557
-0.45440213260333695,0.15736931570064716,0.24278063530101265
0.25073889913035996,0.8060216011695804,0.29831613742081964
-0.3335985611222187,0.6721896481214255,-0.12852420748276286
0.3230898174560659,0.6795469389609698,-0.03710976210814837
0.36346733596170466,0.7439300269456551,0.024674583885593446
-0.46963077644486856,0.3668082111290252,0.1328885076838071
0.34880202129008536,0.0014146649661046077,-0.15856133576837964
0.2648859281170394,0.0,-0.2403111160292598
0.2415936016880446,0.8815977730222982,-0.08515523633129367
0.13074291281849243,0.13347603573672312,0.2371582828221951
-0.2821790759307762,0.19281447927753692,0.4292414819479275
0.17461823939098337,0.5741155506278144,-0.18834857430876623
0.1679819307900525,0.001953,-0.001142602727844528
-0.3066377248010433,0.6738161171666542,-0.1548482071457772
0.11542369355693359,0.09375595230217353,-0.2010213114732563
0.23741092800190278,0.9657992768109087,0.3623211954972322
-0.1926714236385057,0.0019684713828456066,0.2663704471759403
-0.40127719435307374,0.6141390325842533,0.0021285686669161447
-0.11307246211642455,0.6871109383397518,0.38002588583554686
0.35898162538112116,0.16948692514709116,-0.08668864098147824
-0.2849364655358736,0.7157088455810379,0.19793697137282168
-0.4566253560844091,0.4792857858501395,-0.12852363735247202
0.019117776651766206,0.19322894462798554,-0.4162310901591767
-0.4136158355608301,0.5822992257196461,0.08180397922400781
0.22634092135816267,0.4241964103343062,0.24350847305649667
0.18342398816245611,0.34090876308095064,-0.01072146472982001
0.16809101937450807,0.07483430322895533,0.01867677476121821
0.12642705150061387,0.5546610129138448,-0.2817198510660663
-0.11983931275042517,0.018568109494949626,-0.2614877262270375
0.31473943313327024,0.8187789592443879,0.0026123520963667705
-0.3880947224621346,0.02202490943772971,0.20775263486884066
-0.04609159422313354,0.0828504602114419,-0.2545351978880617
0.07231905596409914,0.024150379020170348,-0.257569313894491
-0.19210935556573502,0.28786294621834096,0.41172830599169297
-0.14797111592198794,0.6888082207542843,0.3370905225993923
-0.15388320723321638,0.4750394700094781,0.4028056137559298
-0.3614927500809981,0.08038442688980593,-0.3240866092591757
0.10952298487796937,0.19137560843369922,0.003153631113025808
0.2911566753637476,0.23202337842972834,-0.341967064998349
-0.19849839308494657,0.4455473560536446,0.3878682324563772
0.006538936021611409,0.9285759523242331,0.07103939413166718
0.006897798126336271,0.8432861205556146,0.3203483260391396
0.1467736054921458,0.4795831472909797,-0.22442808587528715
-0.0263674907099024,0.3662054416115346,-0.3484790841040554
-0.07076072330945526,0.4551225974053548,-0.3055882224166903
0.3098470116689914,0.6029483047946224,-0.05619530071871215
-0.3813371880812311,0.645404962125145,-0.051450516825918315
0.3163522303802796,0.683754512668438,-0.12233952875490155
-0.4612506176856264,0.31214202668143404,-0.22181554567220726
-0.38746660416479345,0.528070972302961,-0.2765747261666236
-0.4360654898299581,0.5284422209758567,0.12608321882290155
-0.41230414495875595,0.08185821643741117,0.08305746794204552
-0.4208556352012615,0.20485876846241946,-0.1993810839373204
0.44162374708483443,0.16610501769815325,-0.2816079941667022
0.25932938596179395,0.2595023931303476,-0.22764839615025556
0.36663771962469666,0.7381927692322772,-0.017934334949910022
-0.2515215033454445,0.7682987917007407,0.06543597975752552
-0.30502155588685426,0.2748275830906326,-0.3970095802000767
-0.2823649291406687,0.0,0.044506488500536456
0.12328820397566603,0.2772341965312298,-0.10148129203170649
-0.0466846791504146,0.7725782604195163,0.3650021507890837
0.3560764502356269,0.7628325811598541,0.10543618337890291
-0.031254780834719144,0.6976414183375526,0.4138250391326309
-0.20059813769258708,0.8292230353407848,0.08115567799965498
0.08835100627673122,0.2242485334715988,-0.2724402557195137
-0.23791000005855809,0.22437144919937757,0.43478712871390546
-0.10767711227881045,0.026650743079725963,-0.2576641321250587
-0.3334961447744734,0.5425493413335905,0.31159604903785465
0.05133450392888675,0.0,-0.3805810590307104
0.3207716478191433,0.46560513252942426,0.038844630306901495
-0.3374170690815681,0.48691935110985624,0.32850457889912593
0.31142293411745053,0.6806150765659664,-0.07400218733650404
0.33861874964935684,0.5031123000319286,0.02677826548361019
0.2479313391263163,0.4549484420643262,-0.037138360054661826
-0.062213031932234805,0.16132069716139452,-0.16142838236597512
-0.2110602187964702,0.7086502431503314,0.28769426835551787
0.12547787540625988,0.3052154990591065,0.24149730731740754
0.09758084506658554,0.20327298738473046,0.1869669176123132
0.14177978686844914,0.5312623450428166,0.3990965723858893
0.12416275657039616,0.249533196008201,0.19199805648358775
0.029140218704395572,0.2692534151083537,0.37313619428142314
-0.14449852266333063,0.44899215497369116,-0.33840454053446256
0.21798631531036083,0.5199962315545793,0.27931485070660855
-0.43853283623547323,0.5136792505449578,0.15317836667142834
0.42638528689914623,0.1971375830744586,-0.2406660549186468
-0.12258781298187552,0.01799586692523064,0.13180489680890556
0.35311668268715923,0.24757462408937395,-0.1876070045887727
-0.46296794335181457,0.37915763127697,-0.052022807898450464
-0.02034217259467424,0.08040303193289171,0.2421819275505463
-0.3765449338683188,0.3388443908597791,0.34190543708181875
-0.42131150578964627,0.5773060319649589,-0.03939141603119685
0.21011558921305334,0.18703599070450339,-0.1570571420427015
0.0680282406245079,0.21215117773739356,-0.17039322555283878
-0.17567909835740217,0.8151378481931635,0.2200954318072786
0.3394606961371485,0.041505107837654036,-0.3982308623294205
-0.13571031842292813,0.23464719014110552,-0.44041213247664623
0.4525326356354489,0.05984118923524527,-0.11792381138198645
-0.41581838099679885,0.18395314713406874,-0.20920497671345553
0.23770128166670743,0.32672265053467126,0.07556450353228392
0.27173465108624767,0.3666357916031057,0.08456526359136834
0.07501087726987994,0.02707236183145014,0.36078196558961345
0.2903127704264026,0.5617089636980169,-0.0963453905911549
0.09587052032490678,0.4248609241554279,0.364674251905904
0.27053765174710454,0.3964140929411003,0.0019071053175019614
0.37646964118430853,0.11478857204536033,-0.38999010041053433
-0.0990875633965464,0.7203011577632932,0.37331073393996783
-0.3202903550544921,0.7012564360195968,-0.047937815693107885
0.44654202062228365,0.011765341601389995,-0.18210666574420548
-0.15889293508799718,0.004458929549494645,0.38303651339480105
0.2863206225494563,0.6567813786522912,0.27626722922886887
0.1057737596853574,0.10457863593675536,-0.4852992804078522
-0.41842915372878997,0.4640193490724443,-0.29061043520150653
-0.0488517337402247,0.007608918995982169,0.275553364014582
-0.035251244448832854,0.1150837162439167,0.278992134908013
0.12499294452355664,0.1653291941840028,0.2498499308345227
-0.4699665058354733,0.22286611029387596,0.24024872540258652
-0.3249674755030896,0.00921023769294163,-0.27587659049129765
-0.11748623469777636,0.4316559232702121,-0.32890009446690455
-0.23107343038378875,0.0,0.22734870541451047
0.32065298659155783,0.4668923448288789,0.005991170980575776
0.08891156745806662,0.1360140904241563,-0.14956979912292623
0.14135840597586324,0.09880962207288405,-0.06577597297954393
0.3276386962235406,0.5203759341972573,-0.03111626266966059
0.12779519314731053,0.9042605924000646,0.32409671704316756
0.028289005377264812,0.13857419909815527,-0.48017665015626076
0.2495268993213292,0.42307484676907325,-0.0571867575922743
0.30715159630746425,0.6685634049595729,-0.12442728706010897
0.07159076696452694,0.26518992080008785,0.34537552877506467
0.18001489109237734,0.5504545518071814,0.32987331249134305
-0.4239034229897631,0.030048294750075435,-0.10940985053177989
-0.30076800840622986,0.0,-0.10647412676822386
-0.1324110280124418,0.7107041253770526,0.3545619322517277
0.14327516552193853,0.5317033878717173,-0.2502301205138191
0.11565582385331893,0.7606267009686943,0.4082153735728961
-0.398459602954925,0.459463170701984,0.2839909560758555
-0.02238383888944289,0.11637074882483714,0.2846858988028105
0.3832239732173879,0.22107558899281465,-0.15891111387982226
-0.00022383523519490037,0.8956764143073536,0.2309001968477427
-0.2888708867660842,0.0,-0.25459602700558226
-0.04264263988277526,0.09934487112000943,-0.11633837495126101
-0.039893334191508596,0.23519125332804697,0.3626564142967898
0.10468429516274201,0.19933304020436637,-0.370133001649555
-0.09552917986764572,0.0021037481885387063,0.24427108431336794
-0.010553337411554481,0.04306033985435584,0.1275301521089543
0.10715385676961711,0.0,-0.33335129185459644
-0.2774667801484852,0.5767664880763199,-0.2906640431938264
-0.08050594534744884,0.015417318256567725,0.07460594548196765
0.40219930726866415,0.005009165599529445,-0.28200334179730746
-0.456692446344239,0.2644937746008385,-0.14184581128051013
0.17829492493414129,0.04257986105740509,0.23404379837760705
0.3103486788025225,0.5264391442563517,0.22995906145411876
-0.045878796597316814,0.141332713481478,-0.2610462916414489
-0.4628725530745846,0.4523125726751741,-0.0458146078215876
0.2825536335257347,0.44939458945500127,0.09698925842431075
-0.4342153765962562,0.22740550309901003,-0.12882442781529796
0.0430320671025938,0.6261260545722606,0.4640973043402184
-0.10410303310889006,0.015929322611005516,0.051971868172903765
-0.4657503668884783,0.12357601111797484,0.021492309595286883
0.24149639489542446,0.0,-0.3221323677426928
0.02856751251524891,0.012492046463079417,0.4338306732864378
-0.14479307906457073,0.0297213912024446,-0.048221655494321315
0.029624807259504275,0.717054522287202,-0.27026303267184665
0.20523177393303282,0.5642185257927773,0.4562857210984191
0.24224326103422889,0.7555154670219366,0.33217530220051894
0.22563861822207157,0.9335113530328374,0.3396446974682595
0.12604604297827737,0.2697255807668117,-0.0650104676354639
0.38291052677553933,0.04485981299465864,-0.08109194567522694
-0.14841516503453825,0.054084402807473696,-0.4645919319304009
0.07281250246100983,0.18729627888310713,-0.17083025498921306
0.19161478904560822,0.022108769684972725,-0.439256149880224
0.171127399060221,0.001953,-0.003120265766356853
-0.47685147922151,0.11871636945197508,-0.010798943774073533
0.3289441751466871,0.25351185076758437,-0.24467790488762262
0.43801272479474873,0.022185156484369643,-0.16047225845547844
-0.2847575465525644,0.0,-0.2242897022949769
-0.11896464223919256,0.05905642211781566,-0.08064841691827392
-0.43100482474614593,0.504758232271484,-0.21844602333632085
-0.451022463617423,0.4728070973604231,0.0014677802513361135
0.05429150059933921,0.107379305028916,0.11214420665545896
0.13173726641756112,0.014065096573652635,-0.2513145481234644
-0.1714856834175861,0.0,-0.33016184302918306
-0.43808650682318845,0.24540280485188368,-0.025114369432595318
0.3720992562664254,0.00452886758713993,-0.15257198577300224
-0.167427475618188,0.8492679526396419,0.12348355246466634
0.13152467225379472,0.8818733335299207,0.3531613589723197
0.16310909955987268,0.3660369032652658,0.22751472097328845
0.2569980409754706,0.5409561644994586,0.31519854689874305
-0.3688935159467773,0.5522102905563764,-0.27337139342568145
0.2316631798545492,0.5026827384887,-0.13064762867937146
-0.3237565656403021,0.4512807330650658,0.34375060980924466
0.39047044653370444,0.03442420559928111,-0.35903313594082154
-0.2802722991805526,0.11850132625116935,-0.40379839280924595
-0.32976520824297756,0.0,-0.06050539594197469
-0.3898803436754747,0.551493510433559,-0.2504294600781439
-0.31632515674926126,0.16357145441034623,-0.37256898353357404
0.038174479397727674,0.24046504097741775,0.35598930374879745
0.2775973792545913,0.3797431328795161,0.058818532370626925
-0.30860780789905096,0.0,-0.04753607909900184
0.24385963563512467,0.8237782118269485,0.2908796515745718
0.44314302541355904,0.18686508309481298,-0.16648424543429818
0.1651062310087606,0.9351486104250161,0.310354926825711
-0.42123636419735444,0.02735882873145376,-0.08059157738826704
0.06953201038456087,0.6773440669428776,0.45637248701510336
0.2853107460152599,0.6919254564028894,0.30941894190710134
-0.3067744349649769,0.5097287610765492,-0.33173228459913784
0.29103912650089314,0.14762365865842544,-0.07804684009063857
0.2892067770068692,0.44956186165091816,0.11270106997656743
0.12522928553257837,0.16818567860595832,-0.0387576680006019
-0.05646342365014273,0.03162877693589276,-0.0035431324524629283
-0.3801523835211222,0.6264251121694041,-0.1510287185343315
0.11393908815461434,0.46436923675148195,-0.2438041266594314
0.25768779095791183,0.37030112070018406,0.1466639756554744
0.30813004802717486,0.8241642791101551,0.16735339890626733
0.18606652568964585,0.8716757486177278,-0.2233996802346893
-0.11307736089931175,0.12253810545560348,-0.4776678142742473
-0.13818927121268906,0.8716986562491662,0.11529509423369791
-0.27301387147047035,0.7499051278638295,0.042947979788352054
-0.35264929725213606,0.2641012756645037,-0.3703206390537485
0.0912414494586477,0.10338495479067819,0.12707672519836383
-0.4355227874444543,0.23277169046059418,-0.06727249360361795
0.29544572912463435,0.2024121011171603,-0.3841444112955804
-0.15243159256313277,0.8257850876415301,0.2431211825685999
-0.13589290316716085,0.09078137819131807,0.43795991529975203
0.2680167026411506,0.44505708629412616,0.0006450826236430911
0.13347724514152992,0.7077109563298963,-0.29082999073973637
-0.46944038832660545,0.3313636513824306,-0.09550734664723932
0.29514046367287294,0.783186977118737,-0.10927715765083962
0.06697086240394386,0.1367945271347734,0.12457115707556124
-0.4069129312705865,0.0430593841638116,0.1854218016157511
0.07876359080773099,0.015416948906233838,-0.2736037852269714
-0.43643568562541324,0.23831327153039117,-0.23002617307759524
0.230213958298502,0.43585936894456606,0.2119168149935802
-0.35467963416085746,0.37129874366215676,0.3328858835955628
-0.03563027639931896,0.8923246054857671,-0.04263738214628659
0.45077479800290626,0.18509232707783496,-0.20883369300827423
-0.2331456429411711,0.08813065591124314,-0.4343478186971565
0.29940355382756,0.49470593930168383,-0.09225657244072097
0.10974007581593337,0.1873388586152064,-0.4091807884325275
-0.21813160459713776,0.27171521155540024,-0.42924028317178925
0.2097417012592503,0.5502353010488014,0.32881019436209963
0.12654254457691325,0.003906,0.18909113470457037
-0.0052119841052132715,0.6880759917140593,0.4289843553757764
0.10379229240208748,0.21497751305205617,0.2345316909206768
-0.01597022193770283,0.7216303575324642,-0.24995592238916436
-0.21218002038334305,0.0,0.0018527223236342524
-0.10375424658109098,0.0,-0.3271367210543443
0.15008260413459207,0.003906,0.23310862320694173
-0.4009106654450138,0.028328412353255707,0.17093873027734507
-0.3281866553435825,0.41256109444454286,0.34271817661709725
-0.4489915454970934,0.1863430623505795,0.08739948540484233
0.4236644979996074,0.14783514487762828,-0.09685491847929018
0.26381769897592744,0.8673086371310315,-0.06811294926452034
0.33078778662287606,0.18133127599518903,-0.09313849113515663
-0.06424101651805848,0.003551108914876297,-0.3003449951185321
-0.40121765034463447,0.6001784062320847,0.11124707942785969
0.1517349862192703,0.004855680881187492,0.11956302623911616
-0.3007988228450828,0.7263782790611134,0.04492215666219669
-0.13406219943534226,0.005042542251942683,-0.2712261955185067
-0.4480147298430773,0.30748574357876457,-0.029970945916953845
-0.019319234982889698,0.017685460202758917,-0.4583555967730832
-0.42898895427844497,0.08285621527025695,0.21788252861245216
0.26217045912629333,0.876647043781263,0.19272424016260165
0.019180160322837286,0.7956511921696454,-0.20281027958908915
0.07774192808005805,0.39056558623624954,-0.20057771915437778
-0.009776704681928025,0.6154290382209847,-0.30351076855616954
-0.33111654258694884,0.5016173219426165,0.32888958450669603
0.4648066366790674,0.17045837740878356,-0.21460040999044905
0.05936033110324569,0.4364403380970413,-0.251423240841488
-0.27226290766143235,0.3652501170509726,0.36637900832009695
0.09228940493475563,0.19407163514855544,-0.01838628965093793
0.06192046187780021,0.929639662524706,0.14178209993048935
0.25689758731394524,0.11651251664657605,-0.4451952835642658
0.14850474090045596,0.171402304429384,-0.4346531861284087
-0.4610817396151487,0.2925060156444457,-0.18926627589107298
0.1701128311117699,0.6567350556762189,-0.258919716000778
0.18231562681282482,0.9282353252391479,-0.015371251023442103
0.21003132475111702,0.331912956528921,0.03647083671097388
-0.08364409199868053,0.5889038387193528,-0.2511949856854023
-0.29547887525960836,0.10272719166741168,0.3818917495625865
0.06727564170412682,0.7380063523111859,0.4187559064030414
-0.3057714791883017,0.37261467423256517,0.3543409412977289
0.022047052081303704,0.34490714309536863,-0.3429082458534008
-0.11898830615204364,0.7659332449021182,-0.16172929429890476
0.15855505089874106,0.3314999957110489,-0.0024679454072986454
-0.047468770076853836,0.0,-0.382872137968664
0.2927894977835006,0.5503275451495215,0.30432133861430083
0.28302736341427354,0.8635367046182079,0.06060819328735715
-0.46515414156797374,0.36075313916262924,0.09217521053357278
0.08821961580687121,0.04611595492873846,0.11299734502436433
-0.3096574662839854,0.09893377423043594,0.3699716072611626
-0.45665030870227274,0.3622045321583858,0.035453803936965164
-0.1954761758407619,0.3548866923054685,-0.398888601810375
-0.08865246872249903,0.38743285556525797,0.40626842305777905
-0.4165270307083388,0.10121212953853595,0.05301340544761277
0.20174486910547526,0.9135599680152338,0.19608148462790692
0.3161491827285622,0.0,-0.25450079326562736
-0.02156007875823909,0.0404768555886461,0.46156457785508354
0.2355845388543948,0.5966336557300995,0.4279528877217623
-0.3798236826712432,0.04443996086091585,0.02345889389007813
-0.19892053436200668,0.5240856351060927,0.3884125888968757
-0.43729338840163934,0.537652871434171,0.03902996306210202
0.09234808362299489,0.3028961486083591,-0.1859254852092116
-0.22061670776210404,0.6045888363543751,0.3590553270260383
0.07552627484213956,0.009164316985244867,-0.10575115041710309
-0.19798173605566502,0.21437903144155437,-0.43848221196589593
0.25228447453876957,0.22699768426032302,-0.3621402575098018
0.19079230225136173,0.5159482990752989,0.3078225256947105
-0.03553150265301147,0.518713967022827,-0.27270295932985633
0.2532728957440238,0.5789078490768914,0.32885813777873346
-0.28743511611655376,0.19592541893198848,-0.3854236210419066
0.3853764651839077,0.0409097511781239,-0.3667574718125716
-0.42415390110390017,0.10687471417513723,0.2620330950711529
-0.39076314826498976,0.4722066790554072,0.2869592912732871
0.417009945329695,0.20652551979499909,-0.16806048264135687
-0.20349867629263604,0.024049793936883647,0.4031051589930279
-0.4455646427396389,0.25117385954518157,0.28630621529372324
-0.0820747190725702,0.14679446179197356,0.38933192415368534
0.2884788644558792,0.8550117306400363,0.1280903034720487
-0.08390476625926951,0.0008670072882552859,0.38905702842504647
-0.2549190095928871,0.5414036394055877,-0.3137971101976447
-0.24570476085115964,0.18608488166732015,-0.41199302296213275
0.31500865467125955,0.5124036196963776,-0.07581045606435508
-0.38838000792323985,0.6262496809881821,0.1088444707527681
0.17381403051334954,0.5900515180212932,-0.234317068990694
0.274623504806649,0.4436318911121009,0.0104765106157692
-0.07251640266980774,0.3492655429100832,-0.3826194215172429
-0.38644256546868444,0.00959548463183348,-0.10769586108321495
0.16577197412993452,0.032387169096122895,0.25452904988998665
0.0996192683227375,0.19391964009343138,0.17105120658510167
0.04428293556698139,0.3448247672351644,0.37051520351074524
-0.12950011443865522,0.6286174642612913,0.37169778273098913
-0.19741644834165953,0.5857184260601682,-0.2779556217384118
-0.3318441725244393,0.6749795980907776,-0.12390369651547381
-0.020671782830424486,0.04717984293259001,-0.26179145570196766
-0.4700101851971446,0.3089443915452855,0.1048828750960649
0.27955077108130216,0.43360052502062835,0.006666536017412282
-0.2625304306557512,0.50298966355322,-0.336421015082117
-0.34220090529667885,0.04677384747094467,0.31320105628803324
0.06905973801528506,0.3185538646196444,-0.2135856231366077
0.3054909465228616,0.5122528354789919,-0.08826734946007016
-0.46722204232792436,0.43032530932383173,-0.15726655645053308
0.4789024069858345,0.13621928092114458,-0.19960541920199626
0.30010793228970567,0.6037511396608233,-0.024148573387120745
-0.3548192580322928,0.05166676780709778,-0.3166764898309793
-0.29709618389430675,0.6188458880264822,-0.24618736342282704
-0.4536152314177194,0.14725481134418655,0.11269655405649004
-0.1146576202778141,0.8383808913855919,0.25749659969167515
-0.4569141995596486,0.3375639249530675,0.024813840616442054
-0.11949273304398494,0.0028940518699086806,0.35440293276786106
0.043782131379670255,0.09352249015019,0.13265484879589862
-0.41686186088113936,0.08586931656407418,0.2558379047347707
0.28093830205650916,0.5720486185975977,0.33669755192934675
-0.020491509623047882,0.45345550336504775,-0.28169974084247434
-0.009045823198652199,0.1786650514034327,-0.22116267069248602
0.028272040160609347,0.36462192828827816,0.38125146082871675
0.22074759950659267,0.3790822583462258,0.2077128647088212
0.0023189336798568466,0.6341477941360291,-0.3004262485195799
0.1751340880170528,0.5350986462361077,0.3295107023230839
0.1272481191834553,0.3314937812624797,-0.10570656890730792
-0.20006759590851586,0.7503737240134429,-0.09726078666808796
0.024975566207167166,0.34552455613295313,-0.33864697071936095
0.0987543115720563,0.2116326723733615,0.28353216073506105
-0.1906300962027891,0.8113733939877592,0.18590803728279198
0.09774255907577514,0.06147833339756323,0.27147844993436815
0.16371181033417853,0.4880344344814844,0.35783443111067414
-0.04597982257042226,0.10306862786019759,0.24726040031062246
0.30967414349040134,0.8296356440135276,0.07573653073712565
-0.43711203486310696,0.5195543874020174,0.16612008779873133
0.03290945659693839,0.03932447004449276,-0.0841662927965162
0.028597911060498832,0.43396872031347733,0.3964108966533352
0.07159770091471049,0.09227698356368073,-0.13317963844537198
-0.062456316390087405,0.1136059052229845,0.25051036962179
-0.31717588287994547,0.38446884753250304,-0.37735674635050087
-0.3700907932934861,0.011873897807004468,-0.051723551618596625
0.2656791464797277,0.01393107344216555,-0.15599713340329507
0.296929927886328,0.2539109544343526,-0.298924222252148
-0.36104959992425906,0.6452874657343824,0.17512446569887902
-0.23415126729046673,0.0015379544364003046,0.2682214966389638
-0.14860142903522228,0.31236538566330196,-0.42033931521652823
0.3350238393351734,0.08527944718299216,-0.06195617555221408
-0.330443596090209,0.0,0.1945011087927171
-0.3982612822815594,0.2218458650164856,-0.3028111528794135
-0.1598582726742942,0.7943065556854172,0.25991351217385983
0.28694931301951,0.013253520026075516,-0.14243503232588203
-0.3248082055758187,0.23353117976924592,0.4166618690856778
0.11440335142148918,0.7823755408529974,-0.23511369120897996
0.21147203042999582,0.6835999126701241,0.3492582867133363
0.2999754719125318,0.6083369242325469,-0.018585988909311846
0.459367742164165,0.10952065234263415,-0.11590243201034453
0.157655948478168,0.014710991711352747,0.11352605509769961
-0.13782916872409134,0.0,-0.32295991395688156
-0.27655701643416064,0.7000616659417123,-0.11375906351119106
0.27791583652371415,0.4555683488741233,0.14033933891016964
0.2581562755039922,0.6144716148877566,0.4068870283654298
0.17255004248456354,0.595670531261451,0.3480910089415571
0.02181637972275423,0.7964759200418741,0.3673903403295597
0.27435861072645146,0.8341595905630255,-0.09178214545780188
0.3247277686392085,0.11088275575941708,-0.41891237925917424
-0.11308827632620294,0.4196778882568303,0.40603012616203565
-0.007765845230502732,0.0,-0.32306891864118714
-0.19475118957164542,0.8220329011784245,0.031106750427117177
-0.4154881683986148,0.5587558974207659,0.17993915026171017
-0.2659450323452694,0.1896153519727348,0.4304707864454998
0.10932160127044739,0.22593594753141988,0.20643809102279145
0.30885594474087896,0.5164039702318143,-0.09400798738080174
-0.4260352326374289,0.47587693576762985,-0.2651698783540576
-0.0008230382609269657,0.4173874351115454,0.39797389221246887
0.02831195012658527,0.8761581175298989,0.2703734562142974
-0.017599863574338397,0.2209997916092455,0.3571393054480277
0.2904779371679137,0.5436607407387029,0.27511183335802425
-0.3242406277069109,0.14852331060701096,0.39981939033297575
0.013043896765731451,0.0,0.36972760358469253
0.08520400341967985,0.31762069918023444,0.3450244685009691
-0.11020293112002313,0.14384003128828676,0.293779333277676
-0.11834536083492601,0.5049009958082722,-0.3063701073812355
0.3335456866919376,0.5730942584664077,0.12262981559513678
0.05692387079132941,0.0327233456377818,-0.25556694723293094
0.42985578191042595,0.20461970213954905,-0.2471500303641121
-0.3276408443904117,0.09198559354563307,-0.3684338617570749
-0.20936175962760864,0.0,-0.22728316955825695
0.10026345731386746,0.24196308886899445,-0.14437809849845282
0.10027577808253196,0.1585530959428038,0.2919434723052424
0.30006412027691487,0.5302669296196449,-0.12858830918738268
-0.24188387601169403,0.7328275061480739,-0.06908977918341733
-0.4258889970912352,0.565366134447244,-0.09511128013591816
-0.08031979801023993,0.0008127181881578158,0.3761408697152501
0.11101909839226458,0.22696661061157214,-0.053460897815085257
0.1358933787047203,0.13417903852515767,-0.46950740827930665
0.34694331590027444,0.0005766110828976606,-0.1858156336521825
-0.07082131460459454,0.76447268037814,0.35953564583751185
-0.4579680282123872,0.4529799589384208,0.1751030315986428
0.14021788406485636,0.3322885002557066,0.2120993554165616
0.13631163768166857,0.06793281025175457,-0.19272439622476678
-0.26437504960264907,0.7225740372380974,0.2199190154143249
0.1816855750767658,0.47483754419158264,-0.18115767077040756
0.10209330667199182,0.9305356873217707,0.029611570102227272
0.41881185602217574,0.005110315545879188,-0.24565286592707486
0.14655551393020375,0.33172342000587873,0.18195439922161047
-0.47535922341132797,0.2475884000108916,0.23126153205671807
0.30151772951793615,0.0,-0.3306765504723116
-0.4041253302498092,0.572620773372189,0.18825496285813154
-0.4469133640238439,0.3142376066497317,-0.009462533766202574
0.41509833653774564,0.1997098156891339,-0.1396855589786793
0.21247021952448464,0.3497551489219496,0.16037822670045773
0.21510003216944595,0.9291555103257416,-0.12645985867769433
-0.10071317729441595,0.8857532600108886,0.007893669008191962
0.05889228363978885,0.9225032291750898,0.20279515934746548
0.2665967700607293,0.7940110291383018,0.29061410411899374
0.09650088529650434,0.24543710489777049,-0.3075388971507155
0.43972427280147186,0.1890803799653608,-0.26563371780183326
0.0733483905644214,0.03203373381903407,0.3705119484557652
-0.08740162497284908,0.7033336923469882,-0.22972571141152057
-0.0941509031509211,0.6895361707361999,-0.23425479182719824
-0.308232727510819,0.6886469544043248,-0.11806884113105867
0.16172734861907062,0.5235075549521424,-0.22559337988982237
-0.42600674577745773,0.06597092181886421,0.16698474590417067
-0.3827050772826348,0.5692505686052417,-0.24291475311857802
-0.10655325350335845,0.018852766417935495,0.1347928480477898
0.0016940406852773114,0.02759980179779791,-0.4694658069593062
-0.06946149414322948,0.04596515057236426,0.22244212953774284
-0.41058103021726383,0.051864667063706876,0.11122750579728384
0.03762028959145161,0.8569722467975307,0.3053627693809512
0.02676208563052759,0.012562223189691428,0.4350272772371473
0.2631617234293187,0.43616814565552403,0.1550155496205984
0.22453981343004606,0.4237500578132309,-0.0981628848024438
0.12159256716790547,0.7392524161374556,-0.2616833551392418
0.28844376759058094,0.11450959590128683,-0.08137235803076412
0.23777863498374746,0.8960737435005558,0.16913719917493922
0.3470773040528529,0.26211564396884607,-0.2139631813517974
-0.4212225333141515,0.23448781592628612,-0.26147514111618436
0.1748760287981733,0.5533212085893575,0.34035199716142206
-0.3865510874279766,0.47967509996711605,-0.30789312413451286
0.21259542026768802,0.7226800495881478,0.3542529071045031
-0.35268640167146525,0.5762713581545501,-0.26489238679459126
0.02959115618182423,0.7154860714956679,0.42631818067715793
-0.4182977640802441,0.5786590761876383,-0.060085377863379495
-0.06967230734086817,0.09286940903220545,-0.48637487196960105
-0.4577724874320342,0.43449070339740653,0.03160463217383941
-0.23308386134548126,0.0,0.17126019464026712
-0.15256448952717822,0.0,-0.3479356466310479
0.15510556447084325,0.27592174335778247,0.04442163348848434
0.06554074705641076,0.9248829980517452,-0.01629576191515933
0.21459711166453588,0.3801197633231041,-0.06748704746536617
-0.03781869205541499,0.606112324949745,0.4354899847079386
0.19834829811491145,0.32461120113051956,0.04956423182139126
0.003563360976020037,0.13895003274797788,0.3720692849537196
0.13776686101368996,0.5954045669274777,-0.2871243985363948
-0.12650410415864466,0.23722954569833457,0.3384071966959508
0.3155804136257868,0.8203063762084063,0.11077272966879942
0.15044258282832312,0.8435762151746213,-0.23108682079992118
0.02891726713118972,0.861779542105227,0.2953000170192217
0.23936011734958149,0.6597740208359041,0.3212324981253558
-0.14778755112171155,0.8274029576829218,0.2470802972386154
0.2625655289029545,0.5590886817435675,0.3155369841748922
-0.17518046784653235,0.35892233203322815,-0.3950942391671492
-0.4573036915453364,0.2781908203606037,-0.11399970304891446
0.1652331439562459,0.7738614349328243,0.38968904152545186
-0.4282399244423254,0.10047151571953063,0.0918248347010363
0.11801201608363761,0.5919094619262775,0.45262350092240783
-0.07294498110323201,0.5584111948825317,0.40519242649945014
-0.2703272893082995,0.0,0.21255712032866583
0.13852869438631807,0.9212893895377157,0.16925274850691052
0.22008084440273665,0.9084869927074433,-0.008149130214158348
-0.005739483666150118,0.10329928333439496,-0.49380413701166026
0.19569467325240977,0.06241315296149084,-0.02263603595784551
0.1404598996805131,0.09904668015604945,0.14988742657060386
0.40007128368921396,0.20125486157694586,-0.30432095446265767
-0.17793101212853335,0.8462054283485932,0.0813335435337742
0.0017444727566011276,0.1164929941162803,0.30573896873674566
-0.3793639875976916,0.07169790396760183,-0.29758883018425764
0.3267387171596622,0.5733766741154019,0.017628372645572505
-0.04200743165033362,0.09176892827455749,-0.09669562832422708
0.09620009407034556,0.16443154099847704,-0.4509902232229263
-0.4685100458222948,0.3163777796880466,-0.12666475070371008
-0.40251387702968033,0.47808240367638993,-0.2984533647249394
0.10091584665506856,0.606539382133927,0.47593699354506463
-0.35680674594820533,0.09887142901104026,0.34212846910119443
-0.18858371471164703,0.6446834388342456,-0.2086090077225231
-0.13989306336559992,0.10719892746839983,-0.47580369133694544
0.1522261950398315,0.27404681532458486,0.028659214343665137
-0.06260083033725605,0.14528148752150283,-0.1512480432133203
0.16735201182019246,0.4829434122970405,0.35177385628659535
-0.09669745430524035,0.1391134102935036,0.2751157250237726
0.06072617680526166,0.31881210059811066,-0.3253427392924874
-0.3832725175509678,0.6436705367294225,0.0014636553248521672
0.0894769698443583,0.18129380912699525,-0.009243040450524306
-0.4516229032817495,0.3013487374887251,-0.06259282454530009
0.26372701554679434,0.5610445174308031,0.3147879082588433
0.0958243912996227,0.10800394307741838,-0.4869042353235097
0.08730223978751199,0.18094003339040443,-0.43200277298420026
-0.29748557200534576,0.0,-0.2349053191632843
0.034324999590362476,0.1857640802074249,0.33770447352623695
-0.258749310291329,0.7621723206155209,0.0839513491609127
-0.48484370955987266,0.2942184626600128,0.1980666398623641
-0.03859773735616515,0.02670258314316249,-0.27346893172143527
-0.3174298746870139,0.6291176311116488,-0.22926430437280865
-0.41772525309552455,0.30983759475031053,0.311383195847261
-0.29440081962351206,0.6866226018520958,0.24298128176051673
0.25148156438634156,0.4191820466769416,-0.012435810528109619
0.14328956005987842,0.4971453165333339,0.3846081429785241
0.020870623146588232,0.19230214099697535,-0.4184154857866902
-0.02619064841482267,0.5176853189768363,0.42633431576690833
0.13304582885843957,0.02042376776839022,-0.2337728689702372
0.1675167981458203,0.5199377075542843,0.36499186196916017
-0.0025548643031233984,0.04884844977527612,0.12391833661678828
0.08095816791173116,0.0,-0.32142365135848844
0.3433559698977538,0.0059885017976135345,-0.1420456424019909
0.056703410881476686,0.8176058512211603,-0.1912256741685204
0.1078542174794934,0.9331180228530535,0.08815343153784048
0.20461273088417203,0.6827948091850122,-0.20991176577768383
-0.31030082927602964,0.04056206162282573,-0.35562642697331587
0.16441532828038327,0.920929203068169,-0.028402135399842765
-0.15794281843901478,0.6351538563599092,0.36291882459979075
-0.07065231045998868,0.150391,0.3790212877874739
-0.14854835129706837,0.8590511122270243,0.018865914451299932
0.1349436755310319,0.0,-0.28760972157215414
-0.16274402553246714,0.00572180539131102,0.009110411817948388
0.11417182933071911,0.34499902773960694,0.28676263811047786
0.19080643332213162,0.7426698003585389,-0.2176687073445547
0.02349423010959135,0.42388996110023225,0.392102382428237
-0.46973170366602135,0.3990913472265098,-0.19447429066280247
-0.20063643148899218,0.0052386098714928084,-0.13670545559991346
0.10853564515440037,0.19282641071290862,-0.26342735072995216
-0.07219356302015684,0.11057497583254387,-0.25163801015545045
0.1759164448205302,0.9295254711014541,0.03545729525833567
0.14913390103324176,0.9205532498914991,0.2498790928028939
0.3647920449528004,0.7409744623713364,-0.020184908692533074
0.24033656664492284,0.14810294919294695,-0.11342419749994484
-0.2300940594119245,0.17593441929756104,0.42409026998736427
0.47495957020631485,0.1044302755793671,-0.1446286586316268
0.11003896514304908,0.19363253179091716,0.19323697226265865
-0.45162752404117107,0.412221261649435,-0.2416388745037164
0.3857670731946601,0.002273016200307838,-0.1921546015240782
0.12460926093588762,0.2624849891603057,-0.07352554595637187
0.2951110592727813,0.595082624246954,0.33626174067717074
0.009756324802033386,0.5082216033386451,-0.2962167717298806
0.2292633063656472,0.8979559904648623,0.19146407204663218
-0.4388657346473403,0.23607532716176177,-0.21569904567541143
-0.16348882167349724,0.5230019749020748,-0.31006840264279867
-0.41616424419164866,0.15779643082983438,-0.2430015950878937
0.37452347391329904,0.11551111738624512,-0.3908602867020309
-0.14004894481998933,0.0008860160980246384,0.257819047508341
0.04092024069011929,0.16602388224798928,-0.4584250362649438
0.03815948962747295,0.19073444219110297,-0.2355480980904174
-0.3133521520499414,0.08623630472095431,0.3541911196967182
-0.47002034890209893,0.39576709315496306,-0.19924316607730705
0.2987440156604421,0.1734628052249727,-0.09487250488688265
0.050070312173195027,0.9137699060222662,-0.05793226895017549
-0.21775998102271807,0.4510901787891271,-0.36093991878974724
0.13850268563580578,0.7190925942918566,-0.28354484956626064
0.08388221725324396,0.816152643488018,0.35679556386489136
0.34489422191541563,0.001647233509258426,-0.15701491477691976
0.1318962174189823,0.1455949559947652,-0.08001675634285418
0.1857470141959807,0.3221757091012535,0.048479990321227434
0.42070376080511573,0.18068350806345157,-0.30585539017257685
-0.008016496005858655,0.46967148402133835,0.41592051718344375
-0.456222609762519,0.14974491256550296,-0.1522391506788219
-0.22834854968979298,0.0,0.019014930854007857
0.09067438584515322,0.32436769790858355,0.3410044270858245
0.21079893440517317,0.10715816468803896,-0.4615171119536349
0.08034651242003603,0.5543762642281075,0.46812587024296265
0.3352645139893879,0.5121798192645218,0.14778042198142957
-0.23699489459448514,0.5140041110435509,0.3749663819388338
0.14365930787285897,0.009122577794347194,-0.42747231575058464
-0.09939508177219775,0.8928616339253862,0.11725856288710212
0.1158408990481544,0.8005016544928762,-0.22210566391281056
-0.45059779257646404,0.32723382350290364,-0.25497343309453374
0.14738373542421435,0.6445081526421171,-0.2830817213318394
0.17618252543897345,0.8887136315682319,0.3905484384106242
-0.4568581542314447,0.3614881722277148,-0.02403728858790309
-0.3846251273345618,0.02652022513855,0.06363241341116611
0.328312583037908,0.5730943292294384,0.019508668177958245
0.3183386282348671,0.0,-0.24328304841970877
0.17702623269872206,0.330943269612475,0.014933230536225396
-0.4197267109057572,0.06351667897456924,0.19584411382424044
-0.2739715487471761,0.44069561801263835,-0.36522017180552424
0.2608989207447165,0.0,-0.20991341818488485
0.15517936713703773,0.4490244738855892,-0.19731427670164964
-0.16610566156172712,0.836173038507674,-0.0017443119733047872
-0.030012427606682823,0.789729077102058,0.3551095716723577
0.3619521783481217,0.08776376315319848,-0.0580150112349854
0.26213713026677604,0.8751145938289907,-0.040015368113212935
0.08767084901739829,0.9165156722392853,-0.06001951057759292
-0.12360051287586991,0.8787744063379471,0.03808146004125972
-0.37589944439745326,0.17776879025290843,0.3688388877474594
-0.4596551819586244,0.37549447114102713,-0.2370645343183505
0.22197566993407344,0.47813602541364414,0.23063637978411636
-0.0761284163900173,0.8462495508854779,-0.09877923898476373
-0.23790961941855654,0.5819961768319475,0.35965910691749287
-0.23509701141465544,0.7574669345850326,-0.00979520818426863
-0.24213733145088873,0.25539943363508505,-0.42032243060444924
-0.39453119057463326,0.40099953907118163,-0.3313551831718017
0.30472402024275047,0.572210889495895,0.011145721467500841
-0.11377953532272322,0.8893947741248537,0.07678923489148623
-0.023684874687652083,0.7879507073526224,-0.19209654708016194
0.06732699439453657,0.40122958037774126,0.35847213726696026
0.2358393889758423,0.5730076189279163,0.40739931068560487
0.08847968329129131,0.35026571930751066,0.3422773041010354
-0.4636162417961335,0.18902854182254064,-0.09736050771571092
0.14993500309684912,0.5618457040435937,-0.2587965322965154
-0.12103228003108543,0.000622025125393197,0.20731154998821164
-0.0837206779056265,0.4509772721842038,-0.3085799992587488
0.21366778899248268,0.33005363955456957,0.06520662186524658
0.016229392606081874,0.36096413639673003,-0.327095688644051
0.14913609476583306,0.7481022639468621,-0.2605364953284876
0.23804501464866004,0.44216960212908835,-0.05659983766614654
-0.11765357261944392,0.6947591877513066,-0.21677521980758918
0.0021230780218494394,0.04811854664550173,0.09762538324197742
0.29384281381375443,0.8486023603490396,0.047640270389397554
-0.1791530090277165,0.6870682788503478,0.32949779755037584
0.24142234172573174,0.45877685896191006,-0.04681166825721865
0.22556911602211463,0.6214153190683616,0.3552719074075535
-0.38689990056320483,0.11086943715482422,0.3117998229685245
-0.09765810566389306,0.15761640691790202,-0.4720034982843831
0.20863098069998454,0.004934888654950584,-0.22395197254621546
-0.37298875901788003,0.015397012332632439,-0.04210772128827364
-0.2755030027000167,0.7267350450895058,-0.03291181678086988
-0.47511155151522005,0.1961998531000957,0.15528471498234692
0.1922595117706501,0.6807186982704693,0.3774697967811702
-0.20859021740793843,0.6497869879258453,-0.20337980164216973
0.04611539992853486,0.9319171236991294,0.0849475945190087
-0.2271004462358552,0.0,0.03267168910205327
-0.2200045763625712,0.6724980144118168,-0.17259671764383425
0.23574623546221815,0.355587977039913,0.1566801535957654
0.13645399895633403,0.29381508266951106,-0.020516381559592796
0.0572878565716329,0.16667283338420325,-0.26687853845541226
-0.4408803959001065,0.4548706780260934,-0.2436366297335271
-0.3635599856471235,0.28786363706867846,0.3802156692684386
0.288614419214058,0.44781637455427453,0.05046113785611161
0.1632837553699612,0.09125448681433691,-0.02452394487177926
0.2168679007911501,0.6779775182603882,0.34215824012249707
-0.2470067543530089,0.7628749376024894,0.12098113188745213
0.23762019697888215,0.3271554674280997,0.07252977175789559
-0.07196788243817445,0.009678972123247448,0.2539100354919685
0.2316115322067234,0.9377230591877352,-0.15193052566171247
0.1956339855239243,0.06340230874956268,0.17346559488705826
0.06975511609491819,0.27738687849741345,0.35045724724995553
-0.42688338995354325,0.14553908269076243,0.06699806936160438
0.16669862106411068,0.04076301190654383,-0.18849746872250978
0.030797255345082153,0.07274554940716509,0.11038075042776736
0.19026423907254664,0.057630879681316236,-0.06715002666935424
-0.19668914189881231,0.0,-0.23365584002416012
-0.05131320416105705,0.7222567272391305,-0.2374795389342471
-0.46194382458095595,0.42897551535344786,0.13417335819542064
0.2604431251412176,0.8836157550670822,0.1547980721659114
-0.3723726332969245,0.23919001684385396,-0.34280943137831105
0.25572046776320345,0.8706214603827516,-0.08838158492887929
-0.36811426637810946,0.4987897828592256,0.2985931246659949
-0.16504821618936982,0.3716051960882368,-0.38781507084093636
0.28646180115047937,0.7111740256057811,0.30658766164734047
0.14465125232192486,0.1532522818719373,-0.18971673304794234
0.1486926280541786,0.03944979138185566,0.106445
0.09516321305838008,0.1456961158441416,-0.14868050857366322
0.05354020066828554,0.041258590585931725,0.4178730084091657
-0.09428964806788873,0.01643384494748154,0.04938956160784869
-0.4367436582809533,0.14857766361320834,-0.21168220429319157
0.17435511962577963,0.6394668265751194,0.39571797417296445
0.4350443836694116,0.006770122177360385,-0.1982396281290352
0.153113781384203,0.42562169034450764,-0.18323309529888818
-0.27172788895294386,0.6482583829044151,0.3055655451345388
0.18996875577002803,0.061893824755876514,0.00123207617110258
-0.42719123680002813,0.5283025765590146,-0.20037054509072028
-0.11845474741767262,0.6276975190286835,0.37418238669681825
0.1766428746079047,0.4208112212576643,0.3011696839919564
-0.25949029105003674,0.2694539301357187,0.43456490871989184
-0.45447679362289206,0.48938347314905384,-0.06062005685786448
0.29549168280585913,0.05929459107947707,-0.08817026056481778
-0.1400977060949171,0.4705989005520834,-0.3216709721633988
0.12688906328848737,0.3151344207294182,0.24500175608495245
-0.2608750274134706,0.505323823347921,-0.33523734845919745
-0.06832965647792084,0.28757993156374806,-0.4213894204604179
-0.15948909816974607,0.4907700385179628,-0.3189052122907825
-0.4085175543705818,0.1560895858628112,-0.25697331894998543
0.009599477297837222,0.7327367938474676,0.4077271958758853
-0.43078460974546645,0.03790679675924944,-0.059266403046013216
-0.18156977713125444,0.18318714376952702,0.4061117740091693
0.1473464948789138,0.3417702206614353,-0.04447133516322843
0.13446694326817124,0.1813748301612511,-0.42369983594959215
0.067675090607664,0.1784744690979047,-0.27388033276145285
0.3703865062147154,0.22668903065128046,-0.299229815265904
-0.2685562955712436,0.0,0.02482536718401587
-0.3385213381506843,0.3158165038908988,-0.3824089033096007
0.05949906824731016,0.7043003538951813,-0.288063131797015
0.1987995011114521,0.023298982705377676,0.19714724157212907
0.12494779737159357,0.20022607542929388,-0.2580631708453769
-0.07086152011467856,0.3443522264169181,-0.3863006083863328
-0.17408649016165767,0.20035847273543567,0.40296089618404496
-0.33915272461043117,0.0804522092304675,0.3341300873672927
-0.049626424092545904,0.1185152148157409,-0.13238233202893845
0.28578076517201956,0.20620984018885966,-0.1201660641827336
-0.4155810473622788,0.5809484218342161,-0.11861613991729689
0.12905747894053232,0.12406126471304091,0.24223827175590523
-0.2227404860856833,0.5053544259652331,0.38238634732200194
-0.15557796858795855,0.22904599982944474,-0.43956393833951946
0.392667236728234,0.21759100841280124,-0.2911658487798153
-0.10181223406078932,0.6901662570238632,0.3870395461537638
0.2819363753327684,0.45561463769355204,0.17806610854859517
-0.21096293961839083,0.765904951294864,-0.06410039452343251
-0.13277139383425846,0.26787961502538915,0.34246548863074694
-0.05768706870802627,0.044798911914156456,0.46264722580926754
-0.06849436349996124,0.617662469515085,-0.2701770709565703
0.09104341131868846,0.17448207156500026,-0.004555510290869253
-0.014676730366420103,0.0,0.304932631310534
-0.3050673452765719,0.0,0.14855136118390996
-0.07044751927635677,0.34145410643477925,0.4007259015113234
-0.39251464365727606,0.5715661834964606,0.21015583263132437
0.154952674490512,0.9152616953199016,0.20580185448034344
0.09014781016611885,0.9320724993681642,0.11141627733448434
-0.26013785648408333,0.017765529743073945,0.35945082825937824
-0.2782000681044009,0.0,0.12193988869522637
-0.18087084440573487,0.1938538881887219,0.4074728663369521
-0.35091380183107834,0.6399082502796897,-0.17583718946749544
0.14645921394761333,0.10649407655563475,0.1908336033668991
-0.001829471095597189,0.29176778578844287,0.38594393101726
0.16069556177823976,0.4746897030971785,0.3544055559546664
-0.4670739101995492,0.23498465800895185,0.2593812189986631
-0.06893179921566363,0.14996269366345327,0.3496883814864819
0.0586828905022246,0.015864226448021795,-0.4516393165921355
-0.035536240486456684,0.11206305656897125,0.26791747933766646
-0.4308287165937467,0.2609016746304801,0.030440715932382297
0.14833117944887775,0.6334729625725918,0.4292509138665363
-0.39032856847144365,0.6292396113467502,0.08262025050424372
0.2598104573751405,0.3545367652754156,0.06713525125509631
-0.03704965111459166,0.9179677315672842,0.06320573271733526
0.13450491035590434,0.003906,0.21260589790175052
0.22372405830400438,0.5730111333899777,-0.28618720829753286
-0.19475775506236975,0.020640179630205046,0.4032381522258909
0.3255656813890083,0.11783691049004573,-0.0589347595230922
