x,y,z
-0.35723051138144907,0.41899610274774607,-0.21458404319110597
-0.25014923434131303,0.3972414118502519,0.08244366126380676
-0.24944559538231456,0.2937740973746058,0.063586609926233
-0.40107462428387414,0.42999058994884765,0.0443751730148399
0.3524518190569017,0.05860396006368962,0.13799658399838538
-0.2457175331799887,0.3381831901259162,0.4164029158140492
-0.331364336791435,0.5807923515218468,-0.1759372909730832
-0.2515596809813597,0.6077913829992359,0.21184951907463653
-0.2495587607358351,0.2577534274663874,-0.02965120134433233
-0.23760453234042497,0.03488166846340584,0.08456509615419647
-0.3116103783653768,0.1940236469002804,0.3899383325819297
-0.3962565736854637,0.5638541526482074,0.181289382452145
0.28224322017824005,0.08849200903595414,0.37393735728165894
-0.38359290528111223,0.3130439110658511,-0.143425148660609
0.10999118727659035,0.04906241074628829,-0.19546943982608803
0.20110854137873901,0.0026866955358710097,0.2290566760020165
0.060978937710787905,0.044600029613731315,-0.16836554923140157
-0.3767179727612988,0.6450212020610948,-0.04241436366903667
-0.21607877579891327,0.026563370210117624,-0.022851104760791538
-0.3560628371155868,0.17356546747363616,0.31798112732348693
-0.3392505565937238,0.8717044537251941,0.11150994872069668
-0.3189377955550608,0.9764181284852105,0.15110627602998372
-0.29108793777137215,0.42791079741372734,-0.260502861036768
-0.39471072476561186,0.33241457227084725,0.2131994353998712
-0.25180357096591577,0.4408230462578696,0.04101302439832327
-0.19310637630235628,0.01950430222602597,-0.01215628878065044
-0.2724971248355356,0.22531291035910572,-0.28390862520028265
-0.19622825902237187,0.01924981985646694,0.26346927880448545
-0.39065155636243254,0.3557486414858628,0.29527606198899564
-0.29848638401038596,0.9161027651976634,0.22111278039032525
0.38084873527242924,0.057069223428141996,0.1422429035276106
0.07111206514681948,0.0014366698255906334,-0.015859778579088074
-0.24226056079089217,0.056546723085468154,0.0022064923165365097
-0.1436558752636522,0.05536030912515381,0.3618877502227318
-0.27664464043383785,0.04428963330904227,0.20046648736542472
-0.39575554182865336,0.5943246845292528,0.17365948271244022
-0.24903453277530585,0.2585395803597236,0.0262714317779989
-0.24726240087819196,0.3414092309563764,0.2741980314316367
-0.3623129238874617,0.17306798904118356,-0.10490821116418358
-0.09470752377530908,0.0,0.1468355820256744
-0.00920153450731443,0.02559136048677586,-0.1361316501822671
-0.3012169085245532,0.2125631328855036,-0.20433170292923614
0.013996018989909292,0.0,0.11492629224136157
-0.25129437289502143,0.4774120369313403,0.17267460397738688
-0.2565462327846324,0.6410035995976544,-0.14943525205433034
-0.28650097944297054,0.23286821544381062,-0.2603459686790294
-0.24928050672695276,0.33135970125918485,0.08401769191618802
0.24637755784508394,0.08905259311065242,-0.1474599683629274
-0.3196795237378804,0.9802888044973829,0.1193449108798803
-0.24311329528156114,0.025373930325333333,0.1940978974884627
-0.3947326711381376,0.2944481703797583,-0.0028516069231520613
-0.36811933883939973,0.6189710142330013,-0.11656696153195004
-0.21737112201813824,0.016875555638105062,0.18837369430475126
-0.2558817300543728,0.7217259303577003,0.027703760643104813
-0.03365804948132933,0.05275203708074388,-0.18327248386201875
-0.2924444962481327,0.5969804202451662,-0.18685071110811563
-0.35361601591102465,0.47683887708706796,-0.23915584949808488
-0.23546154389285148,0.04417442189003279,0.1416503807334732
-0.2508276144070912,0.24207817840865148,-0.20820808535088564
-0.25007136330435714,0.5431106583335632,-0.16930205523818115
0.37313099317382276,0.08339178210995973,0.2504945736468057
-0.24575874293315614,0.31635484180091666,0.4091030250389998
-0.37652158794627577,0.1844177065321629,0.2553905473590138
-0.3083954427023114,0.9114060220877036,0.2223324484311884
-0.24423546334916454,0.15074666931376512,0.25445554687691174
-0.28966110194469147,0.7072871885977312,-0.09907436014082462
-0.36679524536751995,0.23187022392723372,0.3424692258594605
-0.2533947513731234,0.4508316475232534,-0.11315409412598754
-0.25017245439924335,0.2674286183127088,-0.06188240315670024
-0.39310695699710946,0.42857075137991657,0.28369940419018924
-0.29195761215169075,0.5221911026604967,0.44235776475228256
-0.23820502500267396,0.02372065529948464,0.20642653029225977
-0.39372077402021793,0.5166380215558659,-0.10418513448703338
-0.3134806453534364,0.22828958523555926,-0.27934145249203673
0.24806476952313303,0.028579480986984443,0.3530837799110874
0.059651724331755834,0.05186379943449324,0.4526895388820257
-0.3420447090941626,0.5130898892543869,-0.21195535920914924
-0.3968144500247113,0.5933638283769946,0.11827202386278883
-0.38025092608421734,0.20135531543398272,-0.06937071366154396
-0.25146989609592785,0.4824425273444271,-0.18021359648757335
-0.3294079945203722,0.32450389417648356,-0.2720287227172479
-0.2489185742065354,0.16443601805435587,-0.17924185798961742
-0.24762695587779335,0.23306595803713515,0.054142412482176105
-0.16616147246045987,0.03520277663714502,0.28406787384253435
-0.24845759184964675,0.21864542997845818,-0.03735847243306306
-0.25095717152267627,0.5605627032895415,-0.09244686306111696
0.17812939862589777,0.021704758430360377,0.36474604674746064
-0.25208514069607096,0.4731459186897379,0.07113114358553807
-0.30698096100383004,0.7442913438255011,0.0805489404638784
-0.19211881219851518,0.05182756915743246,-0.036516004518966826
-0.39628923083336426,0.6057783860546689,0.15190627829963416
-0.3976414849792381,0.3792624617055995,0.190376493860362
-0.3680780772521516,0.448471239458234,0.3975642922947199
-0.0772416687149072,0.0,0.020437391192517848
-0.382543685091261,0.3876875646246883,-0.16567426421995726
0.08002397427438376,0.0007823061521741671,0.2946687852284211
-0.28231217740613,0.8841899824554803,0.23824705695857765
-0.37638845970801443,0.37107289458509796,-0.18265654859041877
-0.3731934034316058,0.12983277412090494,0.1488247862048536
0.19671138910798422,0.05537756053863862,0.4234616450038682
0.08659425741061108,0.02420921656470878,-0.14418861422548257
-0.20339982771449805,0.02541842973138822,-0.29957508467853217
-0.3444336672060165,0.7303093785416381,0.13858574837536702
-0.3386401421146752,0.27506406941885664,0.41443375218906303
0.08319674878008776,0.00022070169889231057,0.11956743805567371
-0.23259475930269966,0.04142025125142367,0.07102578930685245
-0.39074131241496507,0.40169037088479564,-0.14230385488337294
-0.24375727321249824,0.18807508880398033,0.3389557139619346
0.08332126528317647,0.06955645331388677,0.4506395772684858
-0.24638061869638903,0.04851211554380189,-0.03943848421850499
0.1737117605165795,0.003181590890080627,0.3219872337787777
-0.33791169189440806,0.7099887395439265,-0.08391737547376457
0.006087647357766235,0.03415973159541531,0.406477778304133
0.20997649101899657,0.0034191784028394043,0.16942533884353736
-0.2507650676783323,0.49885529067662615,-0.08347653917544212
-0.24905591650393877,0.48443450179289993,0.39076174544152126
0.3683499462597817,0.09675358873290846,0.0030901565072751144
-0.39145241469991426,0.36052291545834153,0.28393037835186075
-0.24991527424251864,0.5444242872929665,-0.11516288222575746
-0.25455765361226257,0.41396713906815774,-0.25554145238716897
-0.3598390584550638,0.09485742034225103,0.12085395060329313
-0.2490260629417822,0.25133480698477284,0.004535666099724056
0.08498906723720856,0.000541260540450462,0.2134349445733814
-0.3978755837099286,0.3461259400325088,0.012860970965884969
-0.15675773909068733,0.028446031593470332,-0.4430433537216057
0.35037874855511114,0.055549188239766886,0.1591053191877655
-0.2553087111933583,0.03254903753337448,0.09671558637871505
-0.3156088430379683,0.6246586294094424,-0.15342386974154046
-0.39703007058349127,0.5455319881970686,-0.010794528491879634
-0.3154362164002219,0.8138462190981725,0.026417584786010896
-0.2529835235114244,0.4606737298428575,-0.041247431524669115
0.05367044386945634,0.00038302649271856437,0.332998863612345
-0.29066066973340426,0.21218329005213937,-0.2777088396397944
0.13057133734899157,0.00350632923267952,-0.07470857234889666
-0.24797401792775836,0.3314801829952733,0.20686723568575427
-0.3868976366429842,0.20787237677289902,0.21918011737346854
-0.27422598042774066,0.673921298085366,-0.1375569128810824
0.16645614992553692,0.04224714576625163,0.3949161406010248
-0.3133234210200379,0.8211982943779391,0.05463950964034145
-0.06073797426159098,0.0010928560290895542,-0.05674350601606437
-0.27214823991449166,0.16271867297661277,0.38587736510418763
0.2385751458155521,0.04148093816227093,-0.12770256702472457
-0.24589765672552888,0.12161794577349094,0.03519456707573651
-0.24761259428432078,0.16103268306693513,-0.055182451470867006
-0.20539059291743034,0.03520015777218155,0.14347882036328224
-0.25344440624820047,0.7112335866003092,0.2411019443388742
-0.2592612133806606,0.11552636497114975,-0.13723602828316914
-0.11370363882310369,0.00013512564661186718,-0.025475306745728715
-0.30064949730272783,0.4341535952587384,0.46208150705472323
-0.32170387009729284,0.7442195113096503,0.13583726793682974
-0.29573774666586167,0.9514266416419666,0.2193430812776921
-0.36825497757472236,0.6890939876804347,0.020242327096796558
-0.3543443966061455,0.6997244613542984,-0.10872476347656776
-0.2915140752032471,0.9506380296113921,0.01849939364263935
-0.12632277588180618,0.023753800800807162,-0.44132150194117314
-0.32607002682988384,0.5836674147634386,-0.17991485789332912
-0.24885764775037675,0.3407632300637745,0.12230264088801013
-0.2492236118228913,0.5522903011544246,0.3650586591756035
-0.294773473427258,0.17855347841659297,-0.28064232917304877
-0.3641923408570074,0.12596349665080703,-0.027727984349224695
-0.24815556609953027,0.18318931420038456,-0.051454292175128286
-0.39018332089910884,0.598708693441281,-0.03928387314243285
-0.31931366046051246,0.11625670826998769,0.300520427112249
-0.32905795759034656,0.8708750348324296,0.09428385024669961
-0.2712242032405754,0.11932873912256906,0.343032188194233
0.0951349418853899,0.0008599864334121025,0.23729232622855487
-0.2776426175055066,0.7552806636596107,0.16804652664631922
-0.07351669896445075,0.014985062813655052,-0.29631975727319765
-0.10857432945188947,0.0,0.10181223017040683
-0.36701065778439573,0.12227993516069006,0.014897445430365662
-0.247546059859434,0.34389317521579343,0.24712698592876117
0.0780437056399961,0.00035356137453142764,0.09594347364405521
-0.39226670279874537,0.6413383311103279,0.13705313976318578
-0.0886621854878603,0.011029375431401263,-0.35847745650378543
-0.2510044820003825,0.589800814241682,0.3481722206756055
-0.19326625281641902,0.05709260321243521,-0.05473896138683705
-0.3700427840891807,0.7002408312418682,0.10231386730111448
-0.2805893269037487,0.4507310933001915,0.4682658163295156
-0.27244973905209385,0.3813051365262613,0.47446613171081986
-0.3869791743109744,0.25641197949503297,0.28864135888148695
-0.2548424819315062,0.6850248970118253,0.08409255915111849
0.03746973688802111,0.031460226279411835,-0.1809094613073662
-0.16531710463718474,0.013672492038968096,-0.4022128786310285
-0.337150852063931,0.13972067263826857,-0.10909543185377127
-0.30177487366198996,0.07313412904238599,0.2530360017116067
-0.2064942060982888,0.03445649792352422,0.06042819998687918
-0.25345514103283867,0.6867722461678633,0.2553063725886446
-0.3119051815630897,0.5674400430883707,-0.2069672508748882
-0.3699614710533475,0.15604431129747598,0.24477282771430134
-0.25041896168686717,0.43943044547941545,0.14785084623263522
-0.20266112195591177,0.006752182217107543,0.15149593811379347
-0.03818443665421735,0.020926760458316644,-0.35849709378815003
0.32673787478914057,0.033951089875045304,0.2515444130005504
-0.39270451471402523,0.3655149226209933,0.26539215175975306
-0.3400441621785111,0.6326153949464854,0.34742714860291374
-0.38585504319462693,0.18769130979307144,0.2150960562216138
-0.24979797312401733,0.5588449301436991,0.20526363978017828
0.37623666802451516,0.08112435616704625,0.01679311581150359
-0.034460980207933666,0.018742717094797832,-0.1179178013556708
-0.25102611292690774,0.37308280203123373,-0.027610725570451466
-0.2770733009061217,0.38855599788127104,-0.26768629044567815
0.34324316099496316,0.05381397526073404,-0.019668684671904295
-0.24746007433306746,0.18166382530332842,0.40519298804235687
-0.13643247113194967,0.04234055757820312,0.37289795739488923
-0.38181871593296923,0.6522123361056903,0.20251412476820763
-0.1084011322303419,0.018616118856731485,-0.4607438115576544
-0.39395634882452557,0.2619512829392093,0.0667603777978399
-0.18787189393134204,0.04762409860552632,0.28452122532674085
-0.24738019251724938,0.3174885999328533,0.259488410816622
-0.2392752613535764,0.056076807792086736,0.15328939225699567
0.08525291862461395,0.0015022866066406256,0.0071607609357393215
0.24781916711768892,0.0651179366364804,-0.11769957921710142
0.3449642453908077,0.09216273304978656,-0.03858995393421943
-0.29403141546863226,0.8337682461937961,0.042177692256102656
-0.36055269539604917,0.4923963540930212,0.39748990293772524
-0.31094633026167695,0.7418423155201994,-0.08977978942863041
0.15192849906009329,0.055831268584496815,-0.18762619152719626
0.26962938290541194,0.005017727145633995,0.13385148265356414
-0.2881085785655948,0.7522545330554044,0.17212487982556293
-0.11881464196465982,0.0037561309003687877,-0.027062427045207452
-0.13673369401509297,0.05864593751564602,0.38503788505695924
0.0908079700465576,0.07576379481154381,0.45940394267750206
-0.2651683983435447,0.2093550016186693,0.4213907881945217
0.3844132302807402,0.09422684731336346,0.06936116711902507
-0.40119716940843025,0.39549172767339946,0.13839628297708154
0.24148821654396532,0.018479673613461978,0.31291290041659187
-0.24718688263056954,0.38166875134327255,0.3610919951046777
0.10380886245776072,0.0013849370684799248,0.3167692357304064
-0.21313718191444755,0.024696313406516766,-0.31167357843077137
-0.39457251003540156,0.3854798332924693,-0.1216338747942431
-0.24013517619878655,0.03808758781201343,0.11959068406822361
-0.35802843160014197,0.7160100188442484,0.08958940207186217
-0.2833561194766843,0.5006694275889143,-0.25315704238931686
-0.3933339661906455,0.6329064869291785,0.05625852784109705
-0.2439159576133408,0.2189543306672428,0.3603623781997286
-0.37198214731546864,0.5821170115053842,0.3377337199473646
-0.25190938213281877,0.4321195361465203,0.007161674659540651
-0.3455257396912355,0.2544306008568765,-0.19584129812529438
-0.30061289357372845,0.3451034486047313,-0.2931894241067563
-0.2550911005220495,0.6035373739864814,-0.2004907702922665
-0.24413749701713225,0.06188920148181493,0.1005532864141879
0.17345852933210484,0.05449204247687507,0.43259482071697
-0.3459770964910711,0.13831309417610652,-0.09047996674941641
-0.2844933328329575,0.882119429806419,0.12486405297984404
0.0386070212358246,0.0,0.2804925240084397
-0.35337202627757847,0.16292654596075984,0.3083443433882074
-0.3887428745962671,0.2516100518454339,0.23791540781098078
-0.2501334770022587,0.5494613071197695,-0.0848497169467691
-0.32404946198073115,0.6280554512147443,-0.1426323504094931
-0.3558657447776768,0.1459173758117056,-0.08020681603926637
-0.3048185176064642,0.816013906846933,0.166992
0.14704530062586904,0.0025643783909384908,0.3432557529059574
-0.24445067493139308,0.09025493047393965,0.16649209989667585
0.10145606783278112,0.04346962387996839,0.4181173600885677
0.2268737343444466,0.003654104788878112,0.2850427660404253
-0.3931373528018317,0.3677330573903167,0.25914299487237813
-0.22106463666089543,0.051153562666498946,0.18257715718308465
-0.06589838597417362,0.06598978238127987,-0.17329056127683176
-0.24358478730317135,0.03482988165382796,0.09593318488031102
-0.2468345752912217,0.2504212910558804,0.21118871949151288
0.3952003840741266,0.0904217627540961,0.07283314705705024
-0.12166275676739105,0.0,0.22957920157811315
-0.25974422003377745,0.4393748331520752,0.4728270535917795
0.19300259746301657,0.0028621256946576796,0.17544594075087405
-0.1955817425882866,0.03885903972933843,0.20997087927026997
-0.31833890769561995,0.23668641081972885,-0.2799655709361164
-0.2560595759739867,0.6992402027831266,-0.02451962416354278
-0.028479809009051976,0.0,0.23342332312488914
-0.1919827686326939,0.05087614961423603,-0.06046782462009582
-0.10912728253399862,0.05600753640472601,-0.13163507304357744
-0.3688334493782061,0.20320305376659348,0.31342588307674496
0.03879268203219291,0.0007288176206587307,0.04142211538020765
0.2911006351951242,0.042432047357256676,-0.03648532164807907
-0.24803691980173073,0.14652992857716574,-0.11271042742703125
-0.35084814360938416,0.24731967675438787,0.38679467944994694
0.05398920663944007,0.0,0.21635030397743227
-0.35120530881554235,0.1487857004711335,-0.09418191143012308
-0.3152546577885632,0.7283422722946039,-0.07155736951362611
-0.04210000192791086,0.0,0.03229256590448677
0.371404410132247,0.07710685293263585,0.16917967554915497
-0.06089264074240795,0.025678580445266875,-0.4281906699572533
-0.055840678609066,0.0,0.2796956706516708
0.19984895444976564,0.06089220363619595,0.4250381075703979
-0.2263316933790504,0.055316278837904964,0.02861975933099617
-0.2819401160339958,0.6177181393768392,0.39263344009004336
-0.11901724375732307,0.02076317917959798,-0.4372232142388142
-0.22102684276375548,0.017201948835333204,0.0772065681917316
0.29656555415435654,0.005706160800409784,0.1220031790740317
0.0037697825349445047,0.059525967720273625,-0.18054954108568816
-0.2511863405989711,0.4999278987235555,0.1315501444058059
0.15074791409409358,0.0024412401269785665,0.28006520728990675
-0.2527209401728997,0.6052769050021264,0.00315102501268702
-0.24744703669693652,0.38455900652129665,0.3479402350602061
-0.25945414283289775,0.3665747508015657,-0.2700384677696232
-0.24385279906142907,0.10122831906591423,0.23134397808865803
0.33081040756635066,0.05022241408500769,0.22638553454336885
0.3046267205532786,0.010082943235162616,0.1647926354767548
-0.38800705591472445,0.318478351532455,0.3257830690019323
-0.009257428374966844,0.033007797759229254,0.40124793454530167
-0.01639353212377076,0.0,0.12472873112286847
-0.24862341964930965,0.41944600426011885,0.276323834129573
-0.3005015596929163,0.6488270375609076,-0.14621585911850116
-0.2523260817533471,0.3295700799010658,-0.20710917352245245
-0.24987578352740025,0.48822083762863105,0.33708080638039667
-0.24567865431581196,0.18492974273404414,0.16725082596703988
-0.24985724622004787,0.565581362118017,0.3407102610248988
0.0676765281014822,0.0024150368848044187,-0.11106913717470124
-0.28578099673521656,0.16814658248192182,-0.3011982984668855
-0.23935722202097673,0.05438436630306687,-0.3253757603817648
-0.3688058041588514,0.5933571605809105,-0.13052986984157744
-0.3083372470642584,0.9850565416333628,0.05459446521465878
-0.316288402565366,0.7068188049824715,0.27285278332602503
-0.26629272975983065,0.10852172034842394,0.33020579580992687
-0.33298725198228785,0.15687850897933625,-0.1370711822787488
-0.24392793928913373,0.1776336493973551,0.3120902683283371
0.11498649616446943,0.003517967926468507,-0.11367161570122393
-0.25411637505537604,0.6928234711318809,0.1709382686976425
-0.24503898263190985,0.17143905537584897,0.20780057704184657
-0.26547004122648277,0.06893883839060536,-0.3018056415732059
-0.24791579024382876,0.4749239192754744,0.45260494360665
-0.3045528653882621,0.75230407018122,-0.044034860813088106
-0.2486440691585072,0.2588606464249101,0.06709496642543245
-0.22492760495422526,0.053120896842626004,0.17960052960065404
-0.4009965566347483,0.4645175378199026,0.07702162129674232
-0.24849283839045588,0.38994955308191964,0.2719579901141762
0.15946333860027118,0.002139911726263608,0.15087852443483973
-0.03823478910682598,0.026872990770349166,0.3801549736660975
-0.23601371752886957,0.03388263620703922,0.14628913649607583
-0.10219525834355177,0.007919437168994643,-0.3529791685954827
-0.3103338389712817,0.6922956349867528,-0.1160271904670698
-0.3383189562861759,0.7352805352783763,0.12803704707255395
-0.2495148436556188,0.5077560462817722,0.39306914314256375
-0.24672805579278057,0.2553936087112626,0.24487596463906533
-0.29873804811458804,0.08563847076867012,-0.07249046391790522
0.294557123898167,0.06385366094867151,0.3226357456286745
-0.4000178166260379,0.47406197821053625,0.14401327460482138
-0.1337512586366792,0.030274167899544523,-0.3362528451045033
-0.33905886663168616,0.7287615566328883,0.1783697928050819
-0.38351153299518853,0.5830150104779542,-0.0958151641764432
-0.3467835459822808,0.1049795947509416,0.23631976606869404
-0.3813906748738622,0.1981649844724497,-0.058954477376878256
-0.3549723075914977,0.5526834268828763,0.38134013189009713
-0.34904278752507056,0.14928347080793425,0.2978189001705807
-0.2521324899674644,0.5913212358460967,0.03516796543971601
-0.395811680711865,0.6236928429748226,0.08468856190413454
-0.0989528395658629,0.0,0.03502871041417628
0.06293130268587592,0.05792458185484579,0.45571989650923367
-0.2470059646007713,0.35763984693871964,0.2956212338977223
-0.27848448458175035,0.849397821961084,0.09475109929571046
-0.042675782212445,0.0,0.1431546117320539
-0.012343391286534632,0.0,0.32672019231621796
-0.08922640586767162,0.010418172740575563,-0.3236657605851013
0.15462980888829406,0.001753337021027819,0.17455369997858683
-0.391068968218083,0.26696526337481974,-0.08644817107179266
0.26463996694635467,0.004933342480155101,0.17665547728248976
0.3916883371051197,0.07551073812946263,0.16785482885553832
-0.2520828869483345,0.4051135436373652,-0.07365658999149263
-0.3979284990608427,0.4494607603649252,0.20520878496963488
-0.2910425479447396,0.3215327752784271,-0.252997308145727
-0.243164,0.08448457286779036,0.28941707783684434
0.29832307619380055,0.02857581183650202,0.004089268919870548
-0.2520344112038792,0.4810077253906249,0.07467614246055682
-0.2511752797413211,0.3411055339201111,-0.09963770945470213
-0.3932508310008864,0.26646472029733276,0.015606191120195428
-0.32982997086747773,0.6490111433098574,-0.17077747592197257
-0.24692504859852407,0.1786904421143075,0.051067584311335956
-0.24516091187590736,0.32269216031507864,0.4653470986579441
-0.2478060708596841,0.1517798400910461,-0.10286230610412422
-0.3957365366682284,0.4960451591965098,0.24351023417127532
-0.24549726327314889,0.026061809483946763,0.17219927643003663
-0.25190257618429934,0.5996100177527344,0.10480585228715128
-0.2513071847349608,0.26648966367282667,-0.1805386080080988
-0.2633842770420958,0.7538226992685206,0.17562838939531486
0.2889129017232132,0.04782787569995438,0.3402947302765022
0.3679137237028585,0.08011695474494365,0.21240513724387655
-0.3995646819395197,0.5130102941626306,0.0972546522946715
-0.2922321807848903,0.7046804540287214,-0.08022818474334327
-0.38348712112069255,0.4350071327353088,0.35878266653701346
0.043708471001547206,0.033546046013897636,0.4094249675863951
-0.32235277814792845,0.9226582464031401,0.22987504977524922
-0.3458893439973701,0.07891411335239805,0.1513685239409417
-0.25081750426595,0.5041422215788789,0.2244570375404919
-0.2541792556443517,0.03541136445255889,0.04863021057952164
-0.30124740503467384,0.7432975840497584,0.026859920570202665
-0.2525469671018646,0.3975332466132814,-0.13053131955169844
-0.38508338191585145,0.2761358737712093,0.3193140298358076
-0.03117344434749303,0.010342809972470874,-0.4064398793598261
0.1541902703280525,0.0027813608911299325,0.3524428531756562
-0.29272509725021334,0.8711945771020588,0.08180008558805071
-0.2508459594312886,0.5617773060037518,-0.04957598676546268
-0.032394043077485585,0.0,0.2801012560042838
-0.24988050116998264,0.5242421925787896,0.1579928875197665
-0.2880928531655006,0.22936991367744092,0.42791231926529383
0.0946706908601187,0.07541093637665279,-0.19662904239386403
-0.26193835236078455,0.11033378795851238,0.33278788302236895
-0.25135127162830223,0.36380724192018266,-0.087415247892011
-0.11914461834905496,0.0,0.2139477611524478
-0.2501895553821146,0.5027460636313691,-0.24294171060736494
-0.3976073182744207,0.5583129284586643,0.04418296314983985
-0.3230762222137336,0.91420814188697,0.2354005388880099
-0.39627452368990423,0.5650950219446604,-0.02162779777723586
0.16702988774825087,0.07362560541993968,0.4458112806488479
-0.053235049206889797,0.025365687988395565,0.40577283914993184
-0.3876763306790526,0.504849453332844,-0.1322746252878568
-0.2495672588247796,0.40703527332902417,0.156234403094062
0.13774537105845452,0.0030310832775178385,-0.0037380583915964105
-0.21279704131242097,0.04917268385495547,0.09933970617854854
-0.40090829371068176,0.3663548008696046,0.09572678465519377
-0.3059527893934047,0.8362387143070236,0.2222030952377962
-0.2719578683988143,0.1098473986629842,-0.28917244989614804
-0.31502846951592184,0.23325841575312525,-0.28095604843134175
-0.3864604765726801,0.20434384515450282,-0.04410326234793002
-0.26610671393196295,0.054466670432169656,-0.2755425205137069
-0.2470603262254935,0.3755895778756161,0.3501473157406969
-0.10302180569940131,0.026147913694581346,-0.12683861459236695
0.32582750692773066,0.03149288163834063,0.16861194364101723
-0.39775514741246737,0.4898056518636863,-0.03435194893783215
-0.27726463827624864,0.8474366767814505,0.07456245448710781
-0.24896430398404254,0.40740041443163255,0.2338589286863835
-0.24826244859279653,0.3869880315516975,0.2821134107811868
-0.2805162914508603,0.4478494459760478,-0.26410866386100484
-0.3923721298659264,0.284780914792772,0.19893165161905457
-0.3793852615055793,0.4593578385862182,-0.17412289672652967
-0.4006109112489986,0.37466299849306856,0.059295479657257066
-0.27032477893599927,0.07667060873096046,-0.30613007604401216
-0.249830359311913,0.4208182734344681,0.1504422919537075
-0.3130440674375712,0.059468776523262455,0.012408238528929133
-0.24860938761490617,0.37274524927103225,0.19741376406932298
-0.28986735701647204,0.2124442956151361,-0.27764246495035527
-0.21954798488841606,0.04460067097113078,0.19887850323489098
0.26797182683950505,0.005714465231759514,0.001236906348458512
-0.24356972461750764,0.15107527447429794,0.31307954543063776
0.3480452190046387,0.05676807347830116,0.1954213612441633
-0.32887256101774676,0.8070672824785541,0.06987431602604692
-0.27719860598555696,0.09916246643369761,-0.28048529114083154
-0.36468557090595854,0.642453040109824,-0.09632319299831511
0.16052712750511544,0.004517199517945119,-0.0883744951081929
-0.30993651519920595,0.7936740813320998,0.08525343606017963
-0.3409181852630865,0.07041764742628996,0.10805140625360665
0.22131831331973367,0.055453719887802705,0.40964714900075755
-0.25182082547415513,0.28463453476829187,-0.17600006359821058
-0.24117818961820062,0.0431979335063914,-0.03895750276666813
-0.2543445419252323,0.6580075542983784,0.12671861694920014
-0.35452496396586014,0.10824031296468148,0.21230106188205275
-0.24642997612571177,0.33732740803545036,0.35044763962894887
-0.25262430599515817,0.3260040639116636,-0.23482527816251303
-0.3243613181568833,0.9830731319107173,0.10706370580531799
-0.3992190306887615,0.35734425305652784,0.041242131868948095
-0.39223170484563175,0.23213607823222263,0.07261939217461637
-0.29723793903901935,0.32418511605906764,-0.25090829944576987
-0.0485257639298666,0.05236847944538032,-0.15739523601389924
-0.305096184792917,0.7504503166278865,0.12802460090383877
0.3704166871989054,0.07729163304209156,0.08683900350233086
-0.33735003480632264,0.8614087219458298,0.10051642289007523
-0.32186185892745656,0.6009545665680573,-0.16819380215205354
0.31351917489423703,0.04756998977678256,0.30819446095678704
-0.24961331520443122,0.5467854083073437,0.007115191124893838
0.2562551173584357,0.08804187745964523,0.39590563612039464
-0.3417907707874821,0.40873981844068674,0.43534591461101485
-0.29938626407508906,0.9370742006403155,0.02488833996719237
-0.33253085709111263,0.8426025717449208,0.15829025583680917
0.12783712529939018,0.003213853443950458,-0.0527398988781487
-0.24880639472601573,0.18793060089886104,-0.13831292071298124
-0.3016520545093252,0.2889648583057639,-0.23801447563232198
0.025126366881940698,0.0,0.09623705044415934
-0.24382776722278682,0.22745683037134543,0.38390345287043015
-0.08278744136055562,0.002374201454385723,-0.06204067079537737
-0.25161271720764994,0.3065579791761085,-0.13345124880112874
-0.21444977109014215,0.035235830449917044,0.19904932051328425
0.050861384903383794,8.893921078155375e-05,0.27822321699967856
-0.252801570713823,0.2979531590492682,-0.24524909471974926
-0.30230996579419156,0.4169021307563977,-0.26496004027250253
-0.36724970987801103,0.2939141274249593,-0.1789419833440542
-0.40150048567412067,0.41965085064383945,0.05449859201684748
-0.3935180481130273,0.3425969209743374,0.24488344792911584
-0.29159452589083623,0.9142046430041673,0.2287139103705948
-0.3979063744641673,0.44058932483410085,0.20441872212915263
-0.37179415537181587,0.5552163512104543,0.3524370434423087
-0.29589459760337994,0.8083240369996203,0.16922289439930072
-0.2519506806699982,0.5856789494230817,0.0792219403003854
-0.3948107065282445,0.6239428129596597,0.1750320118315583
-0.24645252792076675,0.3591352204372455,0.34825126930078465
0.007726901495802324,0.0,0.3135564379482942
-0.36584961916551345,0.12727916708457865,-0.01571324859810599
-0.1253004667777257,0.008466415052288427,-0.029467844233467134
-0.2479278060884126,0.2849260744202281,0.2006205759498696
-0.2564039759896822,0.7233078211325318,-0.010480782311824165
-0.29073933907887245,0.8580292635389931,0.23628577700796277
-0.3462515838017874,0.33721639798571135,-0.2225372314792341
0.14696604969272906,0.002159204771468513,0.2386233621241639
-0.3074180215797441,0.3018173763178605,-0.298799227726808
-0.39510156303923605,0.2934225542376152,0.02437154778957097
-0.21681190238425155,0.05450054679405541,0.22346385373697633
-0.24570276958254728,0.3436309938571041,0.4186385428802069
-0.33208825159913113,0.8378858391951012,0.16317946623893148
0.09578684206453147,0.04017350309952917,-0.15990755271016127
-0.3965340970814633,0.6021529155953944,0.0797371240988924
-0.3129046439945672,0.9727598021754557,0.03832553367338202
-0.01635233954167707,0.0,0.0507656008638222
0.29425323852278523,0.0755617141311779,-0.11050422462450477
0.011692537377642063,0.0691661351039241,0.45253621147073303
-0.1073500221341845,0.029166599828578835,0.3864523401200209
-0.24665702793257857,0.1386185753906175,-0.021770264487339208
-0.25172143066506447,0.5629313667442429,-0.22181244964206703
-0.3942771239821923,0.5694558521034263,0.24263773717545792
-0.2521764817628064,0.4468290763236339,0.029519921030837115
-0.4019864901973101,0.40951278262519064,0.13020678404776412
-0.25555817334745295,0.05050143568345257,-0.020461242677415645
-0.32948296042008207,0.0692298241724626,0.17796932841731788
-0.28411202134244223,0.7848859022192162,-0.03450756828489779
-0.17686664293311682,0.030167648797550732,0.22896312673580743
-0.2520574631265799,0.42495840514435,-0.02267040062355069
-0.3019058356633077,0.22472600415016647,-0.21156613454504963
-0.326323714205542,0.7933456545525516,0.11767132489944504
-0.3156480713569207,0.8490213011571586,0.011629948396353184
-0.26916258621856204,0.07072776685042083,-0.06869647321289649
0.1621879532194917,0.014828063035105418,0.36394276430372363
0.16380067565570022,0.002581905375142639,0.25750920975554714
-0.25624495810584874,0.6951282641511435,-0.05095886967871455
-0.2529928614347091,0.4318024806031673,-0.0806380878829995
-0.2897287058502587,0.039009859146555984,0.08337449137132899
0.0200509608233935,0.0,0.15730902764877625
-0.23034549650024386,0.0428500402828522,-0.043945
-0.3633393317864454,0.6937063092404592,0.1967019606721555
-0.14604416821673483,0.0011085272071179452,0.18950694119874328
-0.25108854720647683,0.620261081071406,0.3579901253970372
-0.3471764462359372,0.363125667037746,0.4258357600027291
0.3448751115422453,0.05367903175385948,0.06917705652202175
-0.1570032541224193,0.014274341239523505,-0.3764478824607015
-0.39684341332732753,0.4992400090504273,-0.06105166400161609
0.054447000508009505,0.04882007606826365,-0.17311553663026819
-0.4002074374420836,0.4852020006649505,0.06562524474942022
-0.07493814578739355,0.0,0.2354641889833553
-0.24393049470712214,0.15533531220330243,0.28638279181845583
-0.38245222282597185,0.649118687877708,0.0028530630616584863
-0.17193061206908972,0.02251220828371548,0.2079852384209831
0.29696814328665117,0.02178241058585008,0.23265271968060997
-0.022520205063778227,0.0019206534995705065,0.3493290018919514
0.09659636689790732,0.0004177812368885516,0.1403199928867044
-0.3058170879354626,0.7389120337579039,0.01807660857758364
-0.2526507020483524,0.623869961721178,0.16088781927844076
-0.39602634810612475,0.6128158288003747,0.06380387490173767
-0.3905472323014964,0.6288844792608872,0.016016567371318575
-0.24978343646909854,0.3860881451930186,0.13090144255698194
0.20609061436637482,0.05185864668286526,0.3875439468919746
-0.29248882033163714,0.7992669064166191,0.06765401438936251
0.12790360806025589,0.00132364876193072,0.1285423093474747
-0.24992474528665046,0.23985173454890973,-0.1291319681116756
0.12359260616542359,0.029420359315114077,-0.17232169768403927
-0.08713618879154204,0.02711092677721838,-0.4666432345769585
-0.2500413844391212,0.5136619816990566,0.32203285877461446
0.19117781354610516,0.04477797849937546,-0.13279055802667739
-0.29812609952019736,0.9900368031016258,0.08385684408774569
0.10481613373839813,0.05062933036018115,0.44830319817981973
-0.39867735261700277,0.5288859676456581,0.05515408662501041
0.3319248005077233,0.07880062530557946,-0.06741668815355381
0.22468555849245625,0.0333521728024403,-0.09823293961948497
-0.2775346557241581,0.3330237764732174,0.46711374453459803
0.02759565580783127,0.0019127246701529815,-0.11567763850901167
-0.25516161173275254,0.3723399338779135,0.4753273814239559
0.19201287656878951,0.0028384142571606518,0.2509733884529908
-0.39669773107552636,0.31569139139601216,0.1323941759972731
-0.3789695579360275,0.21348905629919157,-0.09172107901666879
-0.22594309540920393,0.05611193539531889,0.180526997826677
-0.2457891868356185,0.1653236621664727,0.13517282568679212
-0.32702916970452467,0.7244070424450999,0.21548404209882194
-0.39292555973473414,0.42778730800293807,-0.13714493704226394
-0.3160039498886654,0.40459037259760056,-0.24972650564090726
-0.2484361298588773,0.4183414705726115,0.300581704311753
-0.28329756160438174,0.1703981403295216,-0.25339222708438963
-0.17080829142053264,0.021359612606763667,0.20614119859262048
-0.3251216428441175,0.07580912759302524,0.21042541528358663
-0.25406703312018125,0.6736500439076225,0.18955527689807244
-0.25276124579865766,0.43512017841417683,-0.052237448826053884
-0.38743728829878604,0.18707987535313353,0.14450691475937277
-0.24915021420725758,0.3949093922499422,0.2114101309751255
-0.2231343408192263,0.037652972971570706,0.20938850587627914
-0.22815950669393553,0.031447118499087406,0.10447177553791154
-0.2594651753239649,0.12805179658198615,-0.15044405993302246
-0.359359291389199,0.29364724260562775,-0.18945283938380164
-0.04441732319986297,0.027965014239555164,-0.36310480836188075
-0.1029197606022526,0.0,0.2446879172610057
-0.3898832055927883,0.2934525608953258,-0.11713206986419236
-0.2644637026355696,0.7438097970195453,0.1149755256574595
-0.248105749695424,0.3251991195038564,0.19369228863813337
-0.24848248298814304,0.1795211162956622,-0.1574088506996986
-0.25055807653805706,0.5016479918293338,-0.10589671604130357
-0.10934569599276588,0.01680068735901189,-0.06412829556573307
-0.24863919532709822,0.43831713695071917,0.2916006087881145
-0.2528714257221738,0.08469488737817012,-0.09475075975529358
-0.21840149323418626,0.04968782222260372,0.14414250055025096
-0.2360723595885732,0.051968025525682936,0.17090477565108275
-0.25048278446421884,0.22646883701667775,-0.22630426571845058
0.3908437719541277,0.07533849268715483,0.08757753200787925
-0.25039066572054114,0.4830497701882678,0.2805955890277118
0.2812065500392063,0.005288051508657969,0.09296704357074827
-0.023918470734908853,0.0,0.12756976174332335
-0.16989309452154175,0.011984863621702545,0.2821910455806512
-0.1930292487028881,0.0375634221043002,0.21193209561728146
-0.39236791669021565,0.3160391737706002,-0.11810781092381518
-0.2506495639933247,0.4956023374365895,-0.2166171774680805
-0.14703971272899571,0.0,0.11812130093143415
-0.35816742000694524,0.3758069977688167,-0.21279857153263654
-0.3162287053790755,0.8096963617865687,0.06151151816507876
0.06747814488758659,0.04300725396382266,-0.19412836872018419
-0.2507797351707894,0.4438145494641246,0.1313376368046592
-0.3789575591160702,0.6788806536899753,0.05726516109426861
-0.3975585917432241,0.5714662257058687,0.1188261381843153
0.0005656530858283437,0.0,0.1671438168733883
0.3220741875721567,0.05421485290296532,0.2526981617923614
-0.25156718315712034,0.4883843530555555,0.012207508191263622
-0.2974136779318968,0.9553737626576666,0.04061879869298345
-0.3953972843204656,0.3354477775757442,0.20075061292349305
-0.29512101539932667,0.5749941062531471,0.4162480900400377
-0.24734726251749672,0.18384580212897994,0.020018064817440617
-0.30022073618105877,0.11143882294356824,0.3109832983216719
-0.1737297890027123,0.01232023091791424,0.12860471005382854
-0.17646435329015936,0.019731747989554155,-0.4022953270663704
-0.16292638898892892,0.015309955705209159,0.2026846723336814
-0.19809758310697625,0.03537504813267328,0.28326648917547764
0.36616356506424275,0.08945995547363261,-0.016921690396622623
0.054160976008230596,0.0,0.19286804471851732
-0.23516131322221734,0.022723043444347994,0.2188165693681604
-0.3141468684106741,0.26058591089216016,-0.2847240187859326
-0.32131661195272576,0.5022211416829001,0.43508342507313563
0.06417506475889975,0.07411985725562159,-0.20867826842064321
-0.21366247178551137,0.05335853522788461,0.0076851744005180245
-0.016548030674790944,0.0,0.32306442709665745
-0.33308185871878054,0.1385210286302855,-0.11283750865794201
-0.05017849287682559,0.000998202945415139,-0.04212619695291225
-0.2598164481883164,0.7450814898731579,-0.0022345528286518493
-0.39367500491570007,0.2753332551859027,0.14162028729954462
0.1642359656614772,0.004592528539255106,-0.08490943072445359
0.09868024200493197,0.0010841459469430443,0.27202259510758453
-0.39135335452351344,0.3067079363578067,0.25725037884356733
-0.25048964669220386,0.49746635172571224,-0.24129903785755355
-0.0888069353303694,0.01576443297701335,-0.2921778629746982
-0.25083535665114526,0.4967783623062184,-0.10415954436926209
-0.2491607780938689,0.38111977119245005,0.17788404970304977
-0.2492439421695805,0.37619324977225305,0.15196814548235815
0.3004134119863579,0.025293674800412044,0.23308263910576688
-0.2499538445105476,0.5156018821493978,-0.025883991228970116
-0.3853549255428244,0.49433366993776146,-0.14303200759140117
-0.2549828693948448,0.6959546397243187,0.08306456528247702
0.01723590355825594,0.0052073092261465635,0.37290795481346223
-0.2759348494361699,0.7216303781317146,-0.059749675218253334
-0.3204274162636656,0.9694637782688235,0.1782419366250384
-0.2415522734568347,0.05043972654316532,0.21569082748547966
-0.006535456651905035,0.06872297224833257,0.4453282521855941
-0.3929375255073738,0.42022600849719804,0.2840775389998564
-0.3610161859285413,0.6657008515147496,-0.13759043373648264
-0.3317472968037136,0.7162853616529115,-0.02162536018528967
-0.09116541549622818,0.011195353678329686,-0.3634148310716865
-0.34123226909525417,0.6234904835663844,-0.1411526129916889
-0.3349289351555237,0.8388915892541688,0.08505549697178787
-0.23892788503390242,0.05183357300068752,0.07009347415378787
-0.3160753584208944,0.711052044292316,-0.05541936135690257
-0.2500028630605851,0.5670833815055115,0.2961920672246655
0.37407376271888987,0.05114693385802449,0.08969670132894574
0.26891921481705683,0.005028622077279697,0.1615087789800808
0.21582016949608296,0.01664966770831504,0.33591911488576315
0.03480923434629854,0.0,0.17370278374918002
-0.39775280134728097,0.3988979381234989,-0.043640228061316386
-0.3087259756695024,0.8434802251240656,0.05971275660064892
-0.21962005692901462,0.04029108707652774,0.004561364332460627
-0.32113019978770646,0.10877728792890107,0.28732595900166746
-0.3240396662945279,0.983128015432484,0.1293904455054996
-0.3052197619499284,0.9659220782973186,0.07534069692165281
-0.11551226936730076,0.0,0.07457085264167132
0.12052934149734247,0.029452466912815865,-0.17282323628158963
-0.3308870586221707,0.6823824494813384,0.29532514989070313
-0.3415421637457387,0.2352862284650059,0.3925153098800267
-0.29595396763975135,0.4153719228314075,-0.26443520629220024
-0.30013223136833883,0.5944454126912877,-0.1966701049897258
-0.24596644423818842,0.26386696174883617,0.35584176033525067
-0.25497185182523413,0.7080557657226545,0.10207818802248356
0.35202106935140764,0.08181251333034621,0.25645167397955293
-0.38060814931992587,0.14555760454592576,0.11489969319735421
-0.2896926566434272,0.8524158418359901,0.006614210935404378
0.08804120442638791,0.001257816033239961,0.3658592509370445
-0.3622842072181081,0.0987864618936663,0.08755389789802918
0.31027102378214516,0.03567643921766213,-0.03868841830439859
-0.2624374408542212,0.1309797504819354,-0.2956975768149553
-0.2516085397783811,0.050173575487613684,0.20806138416669825
-0.2849011399138941,0.03642704574574569,0.12754086853546662
-0.24949340269454345,0.28441430098909576,0.056337057435746685
-0.3965714518847261,0.3930571862069249,-0.07203247916806173
-0.3120496791595078,0.7750953991149362,0.0939853070288573
-0.3913709323483406,0.27966187471348514,0.21547071562101963
-0.2850280409110451,0.8759872456975155,0.0901635583923702
-0.003929325355494992,0.0,0.08038103544949118
0.2589242605982975,0.044984249510366676,-0.07852574297567372
-0.3669671198415704,0.11040255852621442,0.08355758638922732
-0.2504008960187736,0.4892784932040659,0.28464986831038913
-0.25097381474896213,0.5807203669873106,0.21479705134716956
-0.3011298747865908,0.39829691205559586,-0.25812444881875435
-0.25726961675422555,0.04053808015408296,0.18012017253553714
-0.32159443150870637,0.5106120651468269,-0.22481940788377225
-0.24567406463744798,0.1838329081595177,0.16639886833378004
0.379283049995402,0.08660144137521328,0.1836611415193425
0.24298190344521794,0.0501371376535184,-0.10366258672225646
-0.12007468452251857,0.015715462651082066,0.2952270893382178
-0.3409635442018348,0.6978169168868147,-0.0546044691999408
-0.2506732092150497,0.10387947758720326,-0.1216543224644322
-0.27938978200742715,0.8715951888570296,0.14949963989883086
-0.2782904667942524,0.7508829447450684,0.028371741561565997
-0.160860515838933,0.017007373903015353,-0.3979433108896793
0.31634070850504054,0.033880054861708746,0.21760745810385357
-0.3896679822262137,0.5914219121540866,0.26025022553905486
-0.40024029455078525,0.46480185822634207,0.03895253076775984
-0.2877228719407183,0.831840254485146,0.027321661800138404
-0.2928560623646339,0.2399217040892708,-0.2859946168156335
-0.25069301249365045,0.39280410569807883,0.012930484162458067
-0.23641602606120765,0.034054241596293444,0.1553434734507361
-0.2864300333283705,0.7232267579044045,-0.08338227001914619
-0.2968640817347722,0.9795484497134702,0.09516646280436525
-0.2522472525192782,0.5890922956679787,-0.0010461546581766457
0.05230580934662714,0.0006251842154345647,0.050331406649742894
-0.2951900832036322,0.6988090291207265,-0.10518926696985484
-0.3385227909895522,0.0920855118471891,0.22946635906260282
-0.17580981281615818,0.035971230735826684,0.26668791703728206
-0.24782286609527052,0.3230092562228929,0.2194758108064777
-0.38287928509563884,0.23199743073674822,0.28927340984491295
-0.16602427504471814,0.01093173674837195,0.056423012260339966
-0.11294494997208407,0.030467913464454665,0.3829267643759428
-0.3897469572398072,0.2528953947595298,0.21580702258688775
-0.3160920921711775,0.6254194319884692,0.37132607719296795
0.3353937091290528,0.06464077966550842,-0.05336404388694294
-0.38975261787371274,0.4652160795197706,-0.13851913141101532
-0.25743125176741877,0.6012264993101357,-0.2107000965653846
-0.378190956349932,0.16974481724161872,-0.03233358949093511
0.034439367474960826,0.0318815697595145,0.4078714683156296
-0.3148527559328561,0.9825606070752357,0.058351877635637414
-0.39324883633133956,0.6068758697007612,-0.01331862873541434
0.2800224403046359,0.04479189771345417,-0.09621512607381225
-0.3014747490125167,0.2172963929751704,0.41369068120996344
-0.25058782007990443,0.4431087141691208,0.14444775432777213
-0.3739482211167061,0.2727750414292579,0.3516286376902949
-0.31383087041266955,0.9581300935563789,0.048964723043904076
-0.1649769697515151,0.006281116033258191,0.15328545394649726
-0.24920530238311783,0.5522368516137952,0.3740512644784638
-0.31646423968458076,0.7690180730543309,0.14526871010588782
-0.2527615878602557,0.45947908639848273,-0.17910572563284896
-0.28542608129406116,0.16509309417462395,-0.1764407332456132
-0.38555845537675654,0.2594069680767467,0.3033810525913225
0.3538508301446257,0.03353197123001634,0.15719283321176195
-0.0025851109264465634,0.05384869022968699,0.4462039512423972
0.21517481295357394,0.004386926774114887,0.01970406752857544
-0.18357030437764688,0.04239118446018847,-0.02257745894577605
0.3051265414702376,0.07038198989015543,0.34866358363638317
-0.3961413932236794,0.6040701759257917,0.04684240115945364
-0.3107533226705281,0.05472278482763197,0.17795760445086162
-0.24711653887883395,0.2277241630132525,0.09035195522029699
-0.17493638775761677,0.022920214996611024,-0.385431916428672
0.3631129033450783,0.060817523913645345,0.007453979568814096
-0.38643655425642737,0.6257999393033715,-0.020042746185265692
-0.35072869609674623,0.5443884695016953,-0.1943232748657587
-0.3925481935598037,0.2624080483556136,0.15194781046742958
0.22324905027465636,0.03107529656517994,-0.0966603738416412
-0.3708412909689716,0.24984881907603296,0.3436817194705
-0.3894776710741416,0.2971060233058573,0.2892255789555563
-0.2530752702800794,0.4093403371147774,-0.1449258186575899
-0.38872312498015493,0.4593510622038414,-0.14379359482549778
-0.3546168622334339,0.6841915458725958,-0.053851313208686385
0.19349404064540476,0.0036856844068367763,0.03714589735317381
-0.25015578266645483,0.46039073586031903,0.23089026820888364
-0.2950028113991193,0.1262429675996139,0.33659399763284376
-0.08769756156589292,0.0,0.122200259830529
-0.2509624124134364,0.4955939578852079,0.20888823939983547
-0.25393864116958303,0.6949895638733122,0.1925014602040176
-0.3973268124371025,0.4802074551686766,0.21450988213648856
-0.16200078498188472,0.023311827562341784,0.24683109536736061
-0.3079808588992127,0.6621301479604459,-0.1353697914549104
-0.21873957720028636,0.05381676375170452,0.050838317677652144
-0.03802336329941226,0.0005250929562841398,-0.004557325463451931
-0.2086446266321664,0.02039934525134273,-0.36331124366483436
-0.3401826881022929,0.07049578044367857,0.055881974676333254
-0.13402449158515523,0.05264099123199381,0.38256602657778327
-0.2991347201858645,0.10257418155183666,0.29886508726715105
-0.39818378193991943,0.519306090024196,0.010761929537909156
-0.20683318056856306,0.03202083121694684,0.009271042622324671
0.34465953083261014,0.05144691680143028,0.07701056003865858
0.3684929160723977,0.06870709011630129,0.2423488211771953
-0.111957731945899,0.026951140207931802,-0.12160586153319536
-0.3093883213641282,0.8396278132867376,0.038177940836888996
-0.08072939983088048,0.003705998914560926,0.31260094055344634
-0.3660314616135847,0.1297249323012492,-0.023021321090953215
-0.17147823011339608,0.026593647553853815,-0.06485883349280591
-0.18581057601459386,0.006300218402906635,0.020725711891489654
0.11627901457316339,0.0010923533611359648,0.11009398452942352
-0.37982322025465926,0.677515783696521,0.061280252462682455
0.3385300152697247,0.04396670351582746,-0.004454928409999958
-0.2442004828032873,0.1028589731339154,0.20278718830762127
-0.2537330615735912,0.40909840235197503,-0.19966475199629538
-0.26877697959314184,0.6357854075440551,-0.17959450837918117
-0.07779112071567393,0.01157058845784793,0.36986630392390013
0.25134050359260207,0.004525144866053434,0.11821309637943984
-0.24970405616233118,0.5319064002274649,0.2713531517455512
0.1055358068925416,0.03336699333641824,0.40604335396227115
0.09182134617743476,0.001648562667932913,0.0074170788272187455
-0.2663667863792109,0.796192530928167,-0.008896101043120684
-0.2324523562958904,0.03410755871769062,0.08836811349771981
-0.327281325258855,0.36811170092290213,-0.24332664394801146
-0.25142463063486775,0.25570430341484335,-0.22634562513985226
