x,y,z
-0.1765732750692363,0.07279150262652906,-0.3240232927636061
0.04508695728085596,0.8846697120057175,0.06925082830937355
0.3993758181649545,0.0,0.12714236221666006
-0.0512525371027938,0.2765979588648982,-0.30168142991350394
0.2537907322504072,0.050781,0.09668770899716829
0.2722643874634558,0.0,0.1377107413627609
-0.1491677608063105,0.28419083374181614,0.3120008863760667
0.10698328018828673,0.0,-0.2857213303914216
0.3260734125649714,0.0,0.2580239310304945
-0.025909258022533868,0.9194938745683131,-0.029084465235501122
0.110352,0.1485753731249559,-0.20876876699072508
-0.135742,0.2788813054462076,-0.20857193880350972
-0.135742,0.1780902883335153,-0.08248997118671518
-0.12727611912915535,0.8578123744968152,0.11337351330596192
-0.135742,0.13758794484930525,-0.25959764733408675
-0.07016697279858852,0.8429569468221624,-0.1639241616148308
-0.13373290269405858,0.7005757139681712,0.15747559509522202
0.05346233293850525,0.5840173147696606,0.3433676752907252
0.2564873877810289,0.050781,0.03578797336273383
-0.13029140234853573,0.8544068159286811,0.006701335638484754
0.053711,0.6282618193012325,-0.18035462967543175
-0.06449531141925058,0.0,0.44306411195594103
0.110352,0.7433401761071239,0.2176939692061671
-0.135742,0.1091502912316954,0.049350201287520934
-0.135742,0.4265482990333352,-0.03942436015992297
0.019241671394063756,0.7951940320382503,-0.2378361764246576
-0.030010949409376007,0.11538562630979093,-0.341031593611399
0.04847128777415371,0.19702783719755537,-0.298919218634994
0.022461,0.6617235207875086,0.05367802508760461
-0.15717682648194742,0.0,0.3484620599257747
0.2912669973384991,0.050781,-0.23488975841049176
-0.11616456523118047,0.4699317106845866,0.3653770146059005
0.00024080997685707595,0.22025759572985304,0.2828921462421647
-0.00489041880951948,0.03453143408876318,0.4748838933578832
0.06210384927018227,0.5456368352065034,-0.18694325514197768
-0.13718096923238793,0.15641994378718763,0.3700851600332879
0.36200266345424004,0.0,0.008350918522220708
-0.09461316931805021,0.894531,-0.12226281764552482
-0.10124653469529822,0.4593042638618999,0.3619007701692422
0.11567862029967797,0.35160638840324054,0.2644828971699992
-0.133566435317211,0.4031746441310922,0.2817505860071944
-0.11261250554726204,0.719536509800395,-0.26659444981990343
-0.16236873345896657,0.569775211365872,0.3208108377307611
0.053711,0.43436060387484215,-0.17995655605476024
0.338867,0.003983869560544688,0.10484051339928385
0.033577709649171714,0.28264445247284115,0.15206174988623464
0.07700785155199334,0.1809693869076866,0.17847498083662544
0.022461,0.5415939739342688,-0.008046326883204363
-0.022897800397091952,0.11239888127300013,0.37557015749846734
0.22962085713726238,0.0,-0.23115927487933843
-0.13423231931397514,0.6613249105931216,0.27041785502523863
-0.135742,0.6684854863650489,0.1945911320331944
0.23626104118692237,0.0,0.21679379579596292
0.24496863128289637,0.050781,-0.23110849248487558
-0.06482395674697047,0.03778429271513683,-0.4247152621824449
0.09081467813191414,0.7016697283407601,-0.16562887031748177
0.1142795332712432,0.5459147127939648,0.23902389745764852
0.043227011455630765,0.7470658785366252,0.23437783255166794
0.13120262129379665,0.0,0.30208264012099784
-0.27784431144522115,0.050781,0.22604279312424802
-0.08170703296407282,0.14562693314891187,-0.340018605801782
-0.135742,0.5369098207118436,-0.16683712466968448
0.194336,0.06730391836224946,-0.017164949367352772
0.1039970358939003,0.0362531285447759,0.36129970902681935
-0.135742,0.2742564745227294,0.23630412649901789
0.022461,0.4196475980211982,0.061060335999697304
-0.08471019592128187,0.07759041181980045,0.38902741766016524
0.3345033434861891,0.0,0.24983590000095435
0.08830244760323704,0.20241814138110242,-0.19563334580983266
-0.31980043624116306,0.050781,0.20391853575717045
-0.135742,0.4047993399067659,-0.009326553726676484
0.08499651021546428,0.3985095187582041,0.35000793439674244
-0.135742,0.5118514611256401,-0.09929976090509238
0.164224799246035,0.117188,0.04473879794673356
-0.13919047225238287,0.736017084650892,-0.2679641550469512
0.22470480137072824,0.050781,0.1871088765471169
-0.23830481049409724,0.050781,0.06363538852196496
-0.27150428850352537,0.04977508796865577,-0.0489839410056631
-0.05273442637281494,0.02991520395764615,-0.40695656532226493
0.3743921152019846,0.0,0.12534959708235663
-0.02757078510920885,0.668660929775752,0.268913033046971
0.110352,0.1560154366339151,-0.2984557643917313
0.13504726288004418,0.08364050793174208,-0.31630075549689673
-0.3318251289112009,0.0,-0.2106820520290506
0.0750173762589389,0.10122529679616528,-0.4042340627981004
-0.15327854728713658,0.2626710096293097,0.3475487917932663
0.08501975862389441,0.117188,0.29034302449973803
0.04392734924549736,0.7622867450033861,-0.060254150517577265
-0.009727570250187334,0.4867591108865902,0.28334342941117
0.13456164431593423,0.032644146652386505,-0.4412620801001094
-0.135742,0.19047498264742246,-0.20057196736721672
-0.15635781158909942,0.5226513584283755,0.30246630446533296
0.04287785535702152,0.4526253754387234,-0.37272656469066806
-0.20790389781643934,0.050781,-0.05247002709134342
0.022461,0.3961047533497538,0.14554895754764066
0.19240360513659854,0.10935439486340148,0.004668259510339667
-0.135742,0.6115956079081483,0.0033189407556813433
0.01707029953649833,0.2753359612618482,0.28342435776412367
-0.02573373440457464,0.0,-0.38007232994247814
-0.2394647292984975,0.0,-0.21413153422817502
0.022461,0.608010876433561,-0.03446154081932365
0.09297823807413323,0.0,0.43763601162979066
0.12341270997653969,0.06382898890237779,0.38244944070726944
-0.21468391339277582,0.050781,-0.12239342622005922
0.110352,0.34141826212771964,-0.2670244971926095
0.022461,0.15088787034958656,0.07806764876578035
0.10150440928707938,0.117188,0.015228315987682817
0.10376009379842413,0.08471779618330963,0.34296622413095024
0.053428438587923406,0.2503003990936981,-0.3594175082215205
-0.135742,0.2631085564421032,0.13840036707736897
-0.031725387217266796,0.6425795865741835,0.2742630433857373
0.003475480919222196,0.7671640217426917,-0.29696524304972977
-0.1864866633234397,0.10481833854950509,0.33494272776464135
0.2092202818238531,0.0,-0.22410056106616338
0.12824238819860662,0.117188,-0.2779177563800966
0.022461,0.24311419575354798,-0.10358879189459316
-0.05557620440102106,0.014648040163855309,-0.3915276190476957
-0.13013147267944858,0.41113308502203716,0.2818213326747546
0.10607733175184267,0.702261147611932,-0.27463712935882983
-0.135742,0.22820687034593523,0.010554194405561698
0.110352,0.45450646216480345,-0.28435222910517993
0.10461877369196393,0.09168174498679933,0.30237838377864523
0.19514776948662524,0.11051654738285897,-0.07809650452166535
0.3612303291095851,0.0,0.15193246313403963
-0.1344278405072931,0.8675919756141324,-0.046911644632497
0.110352,0.37271670619221614,-0.24550417280877884
0.1489852357094149,0.0,-0.3759341683810222
0.07855560082590846,0.30903332256411387,0.34990279621472775
0.022461,0.13374632089679125,-0.09251067642854433
0.022461,0.5458767843810489,0.09541889112231555
-0.135742,0.3062863986473894,-0.20694351727955834
-0.135742,0.0883938433993694,-0.009420190239979226
-0.135742,0.4246372510074669,0.07887798329509829
0.163086,0.09328380799032575,-0.27352425442044115
-0.10259327077888614,0.6193203791044712,-0.292703497076541
0.05288587275236652,0.9094601856987414,-0.05617557930277866
0.10519364393984994,0.7208943639666006,-0.15503534466120783
-0.1061916075181445,0.13575679673899077,-0.3056593232094037
0.07218753347484141,0.463652821806499,0.28407882026530806
0.08628560549052261,0.6570174126678061,-0.18508643979559822
-0.2498535538916405,0.03892210011101988,-0.1847449365162577
0.04065025989842529,0.6431641378996171,0.33411333037748575
0.022461,0.31259432366641643,0.11318509951152453
-0.135742,0.425232427423518,-0.009801907944767957
-0.24325085242779226,0.0,0.3105973839156765
0.110352,0.2237328790930445,-0.28380302806363344
0.088046454292406,0.08437088439268114,-0.38074079100065583
0.053711,0.7880290997566882,-0.02764181162651793
-0.135742,0.7694024915569285,0.07982155087122653
0.09918859585029952,0.4681381997612254,0.2777375167233983
-0.135742,0.48004706961285315,-0.3064553847951377
0.035489031823273565,0.18993085756688421,-0.1658531998768273
0.022461,0.27082302509192985,0.0198680828573215
-0.05283420996316344,0.8550469143601221,0.16753855187767108
0.07271821760835748,0.2620567277626985,0.283938700780781
0.21240999947074263,0.0,-0.3514236939726283
0.3465015865832776,0.04119439514788999,-0.04872672633834485
0.110352,0.5388365538814788,-0.2600877308874162
0.053711,0.25404635996789793,-0.17490741669360071
0.017974675255193334,0.8351388219427797,-0.16913993266774155
-0.10905299280155066,0.7952155344217285,-0.2686457038654868
-0.013427098104194679,0.0,0.3598464746929608
-0.14511530738494746,0.05614146466966667,-0.06373830448474536
0.02120599400835023,0.07722523387670086,0.30052050238304695
-0.11489146605716488,0.78788406185031,0.24944008204998064
0.22329142625799495,0.0,0.3219579129992559
-0.263653392425569,0.050713671132708645,-0.15747137647647227
0.022461,0.5005697253433706,0.1427938797039728
0.023280746425053775,0.9242781436937811,-0.016166865109423202
0.003928219223670967,0.03963363352083952,0.471930773314169
-0.135742,0.10233950253512247,-0.1503317742207174
0.022461,0.5360553477736085,0.016395627138030833
-0.135742,0.15848294221304796,-0.15287437249980546
-0.3054367518009479,0.0,-0.309234431073927
-0.135742,0.5266845992562659,-0.18067080840332955
0.026272184393720865,0.5366424143342082,-0.16527718377986997
0.08501921847130962,0.4797693802628356,0.3657420010824614
0.09264350387226615,0.5212051111406557,-0.3481149850864349
0.022461,0.4718677346980396,-0.11435417672587148
-0.11888820353199886,0.7904049539590811,-0.2163102460172466
0.08392314994605313,0.3243616008783259,-0.29966997471791307
0.057989509023802135,0.117188,-0.13970367598721478
0.198242,0.08668178068974566,-0.14974382209201864
0.022461,0.41543239219731654,-0.05854696622303618
-0.135742,0.19923730514211635,0.056961650152787535
-0.2733751337702195,0.0,0.23345678664716907
0.13566964319686636,0.4191145319560284,0.27048272368048665
0.09710522297158106,0.3681704256528591,-0.299805
-0.350586,0.004822682898734682,0.19152853450364374
-0.135742,0.4126600932252658,-0.23178242101124208
-0.2004745512522227,0.06818306173661579,0.373097644555951
-0.0002437346383809269,0.3675443725604356,0.28334475306402723
0.17947977050575087,0.0737966236881172,-0.35274321309337625
-0.09899602334272792,0.0,0.3826919004929317
-0.11614710392220474,0.4703868117540734,0.36592642891975075
-0.32109952649302353,0.0,-0.20879297052603235
-0.31543,0.011620700157002433,0.0862463785867607
0.0796607304569344,0.03321434410520954,0.4005058417599608
0.04869411810091956,0.03501333531010856,0.40322141256972627
-0.08710061747406375,0.12001685058414822,0.41190274663140286
-0.0066579698524280116,0.1223298230007917,0.35208760735655614
-0.135742,0.22124236137053194,-0.27446610532226356
0.338867,0.034791419199973306,0.08703195245995707
0.1285404739708277,0.0,0.27984328684393894
-0.13347715403064012,0.7854501208489902,0.2362825051701834
0.10809695774643376,0.8478702004986672,0.039130950513341575
0.17794056447289852,0.0,-0.3404910054512254
0.052766683710560966,0.04089686068283971,0.40991415628180344
0.0948838974169656,0.037870866350350724,0.45816316661198103
-0.1516910559064438,0.15555952276755206,0.35902759370589554
0.08626129396662209,0.3139531615719221,0.3391557640042492
0.07199692645314966,0.7638627039509198,-0.23734460633940058
0.12791760053674664,0.3977086799776711,-0.3481325465078502
0.08109669213239383,0.1452877394072516,-0.2993726704130588
-0.0524668462467171,0.4263739594778974,0.28290763788378465
0.10194257736749163,0.20650550505129836,-0.3150785988384202
0.110352,0.21038289437504523,0.22201795832575563
0.1557311542228303,0.06889316002682574,0.1758767873731417
-0.135742,0.4368891872806563,-0.30257825788224885
0.056909623476447506,0.117188,0.050139515462940126
0.1080215554360298,0.8249469994654522,-0.01969103419639945
-0.19898578843311218,0.0,-0.4122018161789848
-0.12491133753722666,0.24997680079841514,-0.30754950560316463
-0.06073047000341829,0.6379558713789094,0.27521149622833246
-0.13386596057023367,0.7130444408436343,-0.20982728862828356
-0.135742,0.05415723003992716,0.013626086112241947
-0.135742,0.16734806647650535,-0.21203824296463758
0.11246674054775076,0.10330584247593345,-0.34733031504661616
0.151367,0.06836442836055555,0.17618151706663013
-0.135742,0.7734509719903624,-0.05782716057114001
-0.135742,0.3034575632611844,0.014400549357136014
0.022461,0.5935364664239801,-0.13002971082879808
0.34668,0.039528398030705326,-0.05671521864662108
0.022461,0.6684968022843573,-0.059673494202575283
0.06450303566798471,0.6555949514453674,-0.28510902054826204
0.022461,0.1555004848222132,0.0888374149456887
0.023843549395473257,0.7125948984441639,0.25187960906968543
-0.135742,0.39714470073079056,-0.2629417433933707
0.110352,0.49757505005134794,0.18921818641570604
-0.135742,0.27041601679255683,0.21354788525345275
-0.11747830006050151,0.7940249191711285,0.23521818547801504
0.022461,0.19480212950754067,0.018544664101814323
0.022461,0.47840515406736545,-0.13921607237374448
0.14594143243352053,0.11284812318015756,0.1730254064370793
0.11725504693308991,0.0,-0.3707864618354188
-0.09699263499488509,0.5186554604982462,0.2825652460059178
0.044571897636964605,0.4403567531933559,0.33927121453940307
0.04151532387470541,0.12490289059894373,0.34320188387209494
0.10463650668855193,0.1617542983873758,-0.3767415598134142
0.198242,0.054748795620583,-0.1064678786276308
-0.019313004451771115,0.5054417114120248,0.28326886861898065
-0.02194867109715473,0.7834584138146962,-0.2251633501503663
0.0787834501214858,0.7001303401997102,-0.2754976574021896
-0.07923062621927154,0.07055399220426488,-0.38022570174552356
0.110352,0.7114753171695657,-0.23532648039317045
0.053711,0.7852066536965613,-0.03360537349079463
-0.10988540232291609,0.49141434105837895,0.28239991238353274
-0.135742,0.46002998855723237,-0.30011695169399
0.007133162850679622,0.4921480221694178,0.2835020926328495
0.3116798580928608,0.0,-0.16642198663808194
0.20257716947228843,0.050781,-0.1337633437821365
0.18538701587862255,0.0,-0.2329115415070202
-0.1536913890493419,0.05952054359066716,-0.41472313788966425
-0.0184508389286253,0.0,0.40270849792215624
-0.135742,0.6300952849539087,-0.07286514182199477
-0.135742,0.5686319783789315,0.11324631473793159
0.110352,0.23663583325428117,0.2446759832182407
-0.135742,0.6516371636654978,0.18695577365382232
0.09584567596146643,0.03578097660256143,-0.39976266393549087
-0.32048009196159977,0.0,-0.03962257894964108
0.10904085643412417,0.04935660584411295,-0.3427548079998694
-0.22625048096773734,0.050781,-0.004496669908378128
0.3301306585498202,0.0,0.17767489458229513
-0.22591238207453487,0.050781,-0.09159783736289849
0.0894989301825868,0.9107347056355903,-0.05273435589640963
-0.08236332822484779,0.1289685171593207,-0.4075980933788247
-0.135742,0.40722808226331336,0.025916154896762036
0.026405913006418102,0.05656465919613711,0.4155276093158826
-0.135742,0.7384841433595715,-0.14888012803323403
-0.0945255324847496,0.03666975470778314,0.281147212443143
-0.009077101395136303,0.48351604197317555,-0.3025719117004336
0.163086,0.08134019892694482,-0.20777231433263563
0.061469791032125166,0.8764407885037993,-0.10542593892007762
-0.1304765658912831,0.8915340479438028,0.08497097591201883
-0.050091689686517823,0.8600705342613272,-0.13898777993525244
-0.11783388209253765,0.20353492922817015,-0.30682429770089137
0.1845952499639983,0.11076219163137484,0.17171176849004055
-0.135742,0.6588108024959927,-0.21548468599290627
-0.1026472555489947,0.4797891272361684,-0.30655218127971495
0.07085468298327824,0.117188,-0.16226020889743373
-0.33557581126152286,0.0,0.19597773550433506
0.022461,0.13515817267855237,-0.09155983186836611
-0.06459198313839085,0.5876706999095639,0.3912907282512467
-0.135742,0.43035085953187924,-0.15207701162430243
-0.362658782278488,0.0,0.006032161024584579
-0.135742,0.6932424900882355,-0.13139753231039897
0.055074434601445406,0.2683145471402422,-0.2991259197687059
-0.13511780433207002,0.8373843134407709,0.08922407104011609
-0.026473958666944037,0.038541402151363396,-0.47196392410867427
0.0024842356127286703,0.12938417075788683,-0.36948727476587423
0.29569416476147653,0.0,0.15227119433177583
0.26377529720873866,0.03158688652314466,-0.249023
0.10748670969107844,0.8176300054396827,0.09750687810332134
0.194336,0.08904054895594422,0.08979894344783346
-0.135742,0.08065085359433055,-0.17835660394286035
-0.035898877009682695,0.22227017308526764,0.28231881576265255
-0.135742,0.12217146235905507,0.16267123772243242
-0.2664832571162743,0.050781,0.06180956418400556
0.0003636240210149449,0.703975608501371,-0.33033557509229616
0.022461,0.7211572208074317,-0.026359423023701978
0.026910245569173395,0.23241783305797092,0.35939861329462625
-0.2780116577335859,0.06822352223020914,0.3442228447552437
0.09976005367857647,0.8021734812419418,-0.20772229815791307
-0.135742,0.4234956273522436,-0.11359052582439236
-0.15210898700040223,0.023100638956811255,-0.25050182484611694
-0.135742,0.6480681153612043,0.03517338845631357
-0.14706482988359065,0.050781,-0.03264512939887797
0.10435402675996439,0.0,-0.32076380492225537
-0.25380302116861253,0.050781,-0.047594028948052924
0.031821719239024826,0.117188,0.1386166830168939
-0.02084866255821234,0.8438885599623193,-0.23266400744221605
0.053711,0.7844380232290111,-0.01988391719611953
0.022461,0.1672164632423188,0.1321213663295541
0.110352,0.5416345371623967,0.2103198056220299
-0.020715825573220187,0.0,0.3964085770833635
0.18150486519811393,0.117188,-0.11556986273646999
0.07477377431906615,0.791847879059578,0.03827066403032764
-0.3747223666327262,0.0,0.001295376315006147
0.06778280473422944,0.24770965476080545,0.3429651192983925
-0.31543,0.01964897148012758,0.007982054539865415
0.022461,0.17128536565376573,-0.12525386666225966
-0.1658953151717834,0.3632711945288667,0.2955373936176278
-0.13216825250588013,0.7096485900738456,0.09268457224261312
0.09360501159446838,0.21571505550944262,-0.19673035053872603
0.022461,0.41001984515001244,0.15132969049457948
-0.23563270273724135,0.050781,0.05884234474311578
-0.15661310608565804,0.17650391098062865,0.399459778603836
0.053711,0.7033218254907518,0.13098787711017632
0.09604245318203938,0.5758733825565325,0.16880665662657124
0.11652457882522793,0.5646806012585462,0.171574603365444
0.053711,0.727253087431055,0.10346934434673846
0.1479590865615186,0.117188,-0.23446983599539126
-0.11798886278626741,0.07519571292659297,0.2807612302788201
0.110352,0.13656637988997147,0.2601152875121082
-0.12776640144422147,0.0,0.3317774250906403
-0.06881798285405298,0.8736733445123979,-0.11167510952912882
0.053711,0.7798422316136334,-0.0279510224806572
-0.135742,0.2441642220089939,0.1921621274519275
-0.13475844626804304,0.6944063820860855,0.25791672603335547
-0.2807685633696483,0.050781,0.004228188731784009
0.110352,0.9077060511252507,0.023287371153115133
0.022461,0.22094361770123666,-0.03908560286479132
0.09150697294286726,0.4770999833631541,0.3629937354931754
0.11005117535902499,0.5486308521454872,0.2907231176994836
0.110352,0.7306664449838894,-0.16972951412282575
-0.05143981484325258,0.5340097349251153,0.28299447987729326
0.10236679038194951,0.7254001877113548,0.2476570005785856
0.151367,0.09061111223204735,0.22439962196581734
-0.04416475515215895,0.0,0.29779011946961054
0.1403132852014113,0.117188,-0.08417167855253573
-0.3057307665830255,0.04350132936677638,-0.035482597016636856
-0.135742,0.3269092938346941,-0.2401498383944029
-0.31064827423055086,0.050781,0.19053510901437812
-0.3776880505269544,0.0,0.16506718299779616
0.035178679843178504,0.117188,-0.006685451195672116
-0.135742,0.5469159648699474,-0.016732254520721593
-0.005091050685485182,0.1199208587401106,0.2823310779130361
-0.135742,0.6013145659201602,-0.20181810804410288
0.110352,0.4924782279527325,0.25156480621842603
0.022461,0.6725926727626483,-0.12143643765611858
0.110352,0.20933437617025843,-0.2051778200189152
0.11360068034636518,0.20766034348588538,0.2950148145816445
0.06827873937919808,0.2376589370569231,-0.37985453513318823
-0.20659460667730925,0.0063032053467299305,0.33900173479125284
-0.12416008699271289,0.05253854361922582,0.42616201190320885
0.09797758279560075,0.6371875668625671,-0.1920567304195756
0.110352,0.7802696711801622,-0.12216560429439383
0.06527043479108169,0.0,0.3614787010145767
0.022461,0.20169279826690772,-0.11121035877812543
0.151367,0.05025632553650225,0.2632274889111338
-0.30026599749641686,0.0,-0.11200502254716338
-0.135742,0.36193586750368284,0.2130804318545761
-0.24396550153341773,0.050781,0.11353992674598716
0.1574835643322566,0.117188,-0.06120627943466142
0.34668,0.013232623768894395,-0.05992563560621065
0.029108271726516012,0.48400889328092245,0.2836979780149361
-0.11208869957142148,0.14086163418170808,0.28106986956974106
0.022461,0.5872187856874475,-0.1616306305400286
0.3767327351268645,0.0,0.0831479903133253
-0.188786394681788,0.03705116936176249,-0.21559765638442552
-0.135742,0.45480322314906946,0.0015145593937263696
0.19273894180687473,0.0,-0.3256629818627134
0.110352,0.6590061891150071,0.1835174423846535
-0.05557628593588364,0.395054979666673,0.2828195638987547
-0.1699205826868009,0.3420988588884796,0.2601041875517705
0.022461,0.17541930372902148,0.017172100279093522
0.29858328847333565,0.050781,-0.09363299463944827
-0.08320910246603205,0.03566115279099215,-0.44817485933913953
-0.135742,0.22250650945607253,-0.08889512354505752
-0.135742,0.441117269080378,0.1540853690769295
-0.12878362031623622,0.8645150494943706,0.10640351578830207
-0.135742,0.30570726025454115,0.0994800393018663
0.022461,0.5054741352126645,-0.02635718882935839
0.1337534192028186,0.117188,0.28109633099119075
-0.05354392476750254,0.9026033135633074,0.09817986666183803
0.22933472398247506,0.050781,-0.07527349645978482
-0.135742,0.7540017880332434,-0.1064789394620263
0.110352,0.7277601391482635,0.14675704192900002
-0.21070452222177327,0.048288201862070626,0.4278492849696067
-0.13257039926963304,0.800563754559968,-0.06305644614030095
0.10474594865131416,0.8475975560866116,-0.14557839437846867
0.15865334241013573,0.0633605449343677,-0.3479150038642541
-0.13458171385988138,0.5408524682784509,-0.3092787305215641
0.07790152908968248,0.1974057890121304,0.28393978733417147
0.011516863950777584,0.6147082441677802,-0.2942509543964607
-0.135742,0.35262902368980703,0.08370009546847443
0.266459792187708,0.0,-0.2775980700280675
-0.135742,0.7660463568637348,0.17372131413171735
-0.03599882177370908,0.8647258084421527,0.10685610950464677
0.110352,0.7543375717970883,-0.2178174363876842
0.10638425637432958,0.07061676848422471,-0.3863505369684494
-0.13344218385761966,0.8131826475857509,0.11836010507487543
-0.18729199027506518,0.40746534490702907,0.3057660528691052
0.056507318815150046,0.2792460677620915,0.1735269258403262
-0.04644724529914471,0.8034549867457824,0.19265111937533613
0.09340068461538242,0.8123739857217259,-0.012681520912140056
0.04325971555361421,0.369149061693334,0.3246172947376786
-0.27496608406087575,0.050781,0.12517283963709558
-0.01920967110483693,0.6446520821387419,-0.28725685968819004
0.1708596171728221,0.033337774587536416,-0.3191137216929546
0.1161543829522809,0.03325023709172701,0.3465355254586393
0.02764761333785906,0.3605372056530479,0.28359576571587003
0.09595082926835391,0.6637870646985982,0.2699127986016437
0.053711,0.4921551326274201,-0.1851109832992906
0.125977,0.5983956304724294,-0.29693832876110343
0.032695674365283825,0.45573121806644523,-0.16567862620913276
-0.005183551225091114,0.7939839030455974,-0.24211203082642904
0.110352,0.1657421918120593,-0.26392516505468366
-0.135742,0.2981716355732016,-0.19145733007117344
0.022461,0.5804699729614404,0.1303077599278567
0.022461,0.25262399588954026,0.03989609475904844
-0.061038791685498396,0.689845431225461,-0.360205266320596
-0.007866826992930849,0.17661700235662592,-0.40088002011581825
0.022461,0.5312629717808997,0.041445300013904604
0.022461,0.7378090494711957,0.011380053891688141
-0.131765570030152,0.8873752741064459,0.09404974963033019
-0.0994283524539017,0.07657359383124263,-0.3762966226935403
0.13724158885542304,0.117188,0.0677206347191293
0.2524975629961975,0.0,-0.36297046102688457
0.052330215838321266,0.41056242760318873,0.2838583396295354
-0.08931733758831306,0.23966042032176624,-0.30462707395632643
0.022461,0.75492249812469,-0.0706623246909249
-0.09490794978277876,0.8415669659161515,-0.16897097288250568
-0.14548003724728076,0.02757714742317007,0.4739885647285558
0.08129032991813524,0.37012351743426,-0.37096331602055793
-0.135742,0.288529936194963,-0.2680337588959115
0.022461,0.4816491844009546,-0.10236921341032909
-0.12962232230944876,0.7014959880072017,-0.2732604505784888
-0.19207444175360375,0.5061583829107443,0.3075522522497908
0.3080734875515708,0.050781,0.1555937995021125
-0.19761977568837263,0.050781,-0.004422385406308557
-0.135742,0.2706448112398575,0.0029375459838376222
0.110352,0.15461013977870863,0.2693899933180218
-0.024901829071617036,0.14087437488100382,0.35301484436311
0.07910142961247321,0.3366385082155837,-0.2996094674897625
0.022461,0.6420146320870149,-0.01856279969124014
0.09568768882126305,0.5772830622747949,0.16875871390458105
0.22258731221239775,0.050781,-0.10104970321138976
-0.059614094729083106,0.0,-0.42024369762416147
0.04295008608178939,0.06108080484375551,0.42675293612494986
-0.08888032578938258,0.056401781426506176,0.388074405752904
-0.20636175392162304,0.021042442516984405,-0.22760728621843312
-0.135742,0.03934292950585583,-0.2751715445906088
0.2799186108175263,0.050781,0.1424290160779259
0.40405593139047213,0.0,-0.16144697554667836
0.1592981900447459,0.11120980995525412,-0.21220450018457046
-0.25233565035127387,0.050781,-0.08932173327199587
-0.3063518462486067,0.05009322418414458,0.08418089969063206
-0.15032404515138498,0.0,-0.40297205835691424
0.110352,0.44035151736424966,-0.2385917929534295
0.05898343138050177,0.18787464464402603,0.28368621788210485
0.110352,0.3148192525192273,0.1985200739917075
-0.0638538087729049,0.22253396061752412,0.2819550580914919
0.008547026585934342,0.849667468340013,-0.1471989085527259
0.07923789325545948,0.023132104695641205,0.29831398757238226
0.022461,0.6061414540641991,-0.08831893031183055
-0.135742,0.5447592686330673,-0.10766422414895445
-0.09295617363646241,0.07112164613066566,0.3927458359801139
0.10738051751007752,0.0,0.3845645455763974
0.11796795264427415,0.04380091611024235,0.3396856424400969
-0.044979602604616475,0.273624251833258,-0.30137242859685404
0.05914014233048674,0.030676028811645398,-0.31347101034011643
-0.135742,0.0725628451748801,0.22705335249730904
0.16974226873477066,0.050781,-0.20273151658983973
0.022034260171549684,0.10509804400746428,-0.40876251476818426
0.07347199605546828,0.07864775228354105,-0.36660906564889056
0.1055514033313279,0.12399186464664821,-0.29973714014542024
0.022461,0.707843086631283,-0.027396899563577937
-0.05809878868080856,0.6794585113620984,-0.2814775941441917
-0.349111102307937,0.0,0.1118480058493064
-0.027292324467762794,0.91537736176685,-0.04019911302989757
-0.12447478987053033,0.0,0.369788599558692
0.05382998912188467,0.6897218147318211,0.1512905048149142
-0.10275262378065644,0.7999628832401866,-0.20482816438275897
-0.03795883980024492,0.8469776373719664,0.2014251016152016
-0.135742,0.7868442728745334,-0.17294896044337915
-0.12869628317532383,0.0,0.36920010270792025
-0.22531695177523908,0.0,-0.27965174579265567
-0.18049695622200385,0.050781,0.13092958743545394
0.110352,0.24504440057578739,0.23949816992333475
-0.13483394393931603,0.11288292132375782,-0.30790977869372954
0.21615234445388434,0.050781,0.019876125609970246
-0.3218676421371941,0.050781,0.18603625564812695
-0.135742,0.4733104150080018,0.028453379047875302
-0.10760426694819901,0.0,0.2949732397533745
-0.135742,0.29954318542510827,0.2742542558687963
-0.1276541804983943,0.2453273655198487,-0.30775703013890926
-0.16769129398357246,0.04325765741870932,0.3432763127301233
-0.20146104532723813,0.13394705897176626,0.33599693857165286
-0.13481981905807391,0.8324527883775175,0.0628141171845718
0.0024564184265058794,0.07280174897161988,0.36535762015546197
0.22017879684437774,0.0,-0.26592266823747956
0.0008123170508941568,0.606098580539382,0.2929593845569511
0.10990606376985791,0.8923441216086094,0.019836899930367774
0.022461,0.7233747522350465,-0.08749472405463157
0.044952092428638686,0.06439002441908523,-0.44022440155099624
-0.08317173759861847,0.06478440031315684,0.46696208819947016
0.019042171369251487,0.0663281610293197,-0.4535236244009499
0.0028992104881693003,0.5752527035725733,-0.3624606202763211
-0.23186002566253205,0.050781,-0.031201876632023173
-0.135742,0.08917669965179591,-0.22702912139183318
-0.011627825960219084,0.03826564448784205,0.4628557186402478
-0.135742,0.39544713505877715,0.2069469467772081
-0.135742,0.5415341567276917,-0.2454154939820088
0.022461,0.42233096227645794,0.1429595897994808
-0.135742,0.7620039962207346,-0.09646177326410738
0.3421682498979181,0.04187032997202857,-0.22453414221756024
0.110352,0.2820636557912248,0.26558660146481705
-0.04618063509692946,0.5198583655665916,-0.3046449056003991
-0.1673029085891418,0.050781,0.177081671996249
-0.0807800861343757,0.2206396314103264,0.2817407556514559
0.3264288178252203,0.050781,0.033217802186633186
0.110352,0.326346423516519,0.22629860320244188
0.034122573825849135,0.0,0.36210807224635577
0.3126572370926666,0.0,0.18288582351600635
-0.0035468399548187896,0.4738789326588143,-0.30220773115215077
-0.135742,0.5392577484041277,-0.17325307134192663
-0.135742,0.30647167293747,-0.27808266940592213
0.1071526050166559,0.818061206213439,0.11506901569434644
0.110352,0.7522646101465994,0.22463607470807131
0.01839245629224033,0.5238019437122509,-0.36960783518637946
0.053711,0.45568068682281027,0.16572781523331764
0.060417694871355426,0.6122902093747016,-0.295015288960654
-0.13328554742976587,0.8649584324959871,-0.027501482963996432
0.1582075032310523,0.0702986352355036,-0.3639133401748379
0.027162862119956943,0.04213753696596828,-0.4205058998459172
0.11980518023419498,0.41711310761290055,-0.3357899989660072
0.10127864143301583,0.8840242036657884,-0.09007009212268438
0.007715179778840119,0.14051242355993446,-0.37902070164995005
0.06174769518422539,0.14532521334388374,0.33163202693195004
-0.135742,0.3566953390839807,-0.2783736365959016
0.25612877094857683,0.050781,0.15841821269119669
-0.04746028653011168,0.7028007502696368,-0.3343507915741004
-0.14523536813911853,0.3759443914118997,0.4033813558834918
0.01801881692553778,0.8084604348121117,0.18660293636782918
-0.1332637910697351,0.8443679059585082,0.008131312766145107
0.1170198777784967,0.0,0.3817061607241488
0.03724024896096852,0.6024339309317336,0.3710723683450037
0.110352,0.8063850969696402,0.17268003979845412
0.0370597841342553,0.26739175596498915,-0.34963884248937205
-0.010742,0.08873457609002587,0.2860829693752788
-0.07064379648167962,0.8906383128093301,-0.063477
0.022461,0.6314962032987621,0.10315469779028835
-0.13456654555801445,0.04630557587175177,0.45081690422407417
0.24732063134622276,0.0,-0.3836089164445811
0.10877866019207888,0.09448232707173787,0.38519362319046235
0.10975105544313836,0.814226365914458,-0.08497372014572901
-0.11601320640403238,0.39358484232002017,0.28193124541699277
0.08298320830252076,0.2475524528560547,0.17991720647064427
-0.135742,0.4282481339247826,-0.23738258996790768
0.022461,0.1894857837836132,-0.12957055194537345
0.2740754013195872,0.050781,-0.012444064812306324
0.05956371664838667,0.0,0.2906495924503786
-0.10358834083630533,0.7877564187674599,0.2237588556586395
-0.06140118060491105,0.7189460597830323,0.2917374283210703
-0.12110939541695509,0.0614024595155325,0.38597867438493033
-0.08290449996131119,0.027733979261505542,-0.45329076411225944
0.201512548412054,0.05066433284400933,-0.23937466715599068
0.0648100799789501,0.3860239817193104,0.3422301526541333
-0.34359241636140864,0.0,-0.14872962830402922
0.02192356704572182,0.6908753237874912,-0.2780930291041241
0.34668,0.005170441369932396,-0.05548629100541127
-0.02446706311410266,0.688522180281477,0.34850955764029745
-0.36683876743166927,0.0,0.05860921880713007
-0.027908869493758995,0.8550361895827024,0.1257936342862665
0.022461,0.1321880675265273,0.12538554435227073
0.3925715019487476,0.0,0.11108929524212359
-0.135742,0.5688829575664152,0.24253824203294905
0.09041513362361295,0.25652872659685944,-0.19607042239369885
-0.01239195684982676,0.6736248972106488,0.2678947849877069
0.3617488506204414,0.0,-0.1569613247072317
-0.07046861919221266,0.8798316787957692,-0.09866230850785333
-0.135742,0.22635494488439672,0.13114648263722556
0.2956514370267806,0.050781,-0.19304861216786792
-0.135742,0.7753141764632633,-0.0022436893475133446
0.02978653424577076,0.4231749514219394,0.36707095855756183
-0.135742,0.5406862848108839,-0.2804326865661543
0.10354914880721225,0.6556522031363456,-0.18890095066937077
0.015538529341253493,0.36669743820891876,0.28348903063554337
0.1369249975153218,0.028880643519842035,0.3278422278769887
-0.20383746506176087,0.050781,0.1723709042317142
-0.135742,0.7237704667177097,0.19652948795251748
-0.1763798209357227,0.04156477674530566,0.24038492007319784
0.053711,0.6542143720715426,-0.17315841461703854
0.022461,0.2567124395101516,-0.08265963103240453
-0.0212637741667146,0.7053702751225495,-0.33381991580589887
0.053711,0.3383363627985078,0.16843544999098167
-0.10009233466482115,0.465401654075717,0.35673077539906684
-0.1253618852583522,0.7648588882205238,-0.23729707502098402
0.10987441467678578,0.7671549752344522,0.197906672011124
-0.14270124871051926,0.05394318443055158,-0.17040141764350922
0.19817867051727783,0.028360434788261814,0.3598237252982461
-0.17583105707158694,0.8345005376091029,-0.15621754652669426
0.17266590037459412,0.03830064881728706,-0.249023
0.110352,0.5381460233513177,0.25034520011737993
0.074956672005241,0.6293961162688309,-0.1891121337233204
-0.1354943833372185,0.6946158815222739,-0.10124177144848567
0.022150586162648554,0.10994329410041061,0.29965837804142403
0.026433753581557067,0.09126980005015672,-0.39795176394318266
0.030632854353523892,0.6994692463069523,-0.2764994250712832
0.110352,0.38005039808724006,-0.26611295512722505
-0.1901443105432779,0.04161390339105656,0.29952665963177405
-0.00544063640159681,0.8819514010365055,-0.09464967372824755
0.110352,0.4515626642928412,-0.2942796001090684
-0.0356663430589583,0.876356240513804,0.08542014676192192
0.08844321526756405,0.6845634340688087,0.16103608959438048
-0.135742,0.5218736371464218,-0.3003060098933215
-0.118412030343099,0.7421320874711409,-0.25198375711956117
-0.135742,0.5405563844366337,0.22852533606999567
-0.042915154537300396,0.0,-0.44781360500178985
-0.14922556345275204,0.3335766627958453,0.3619458939312674
-0.135742,0.3327619428366626,-0.1235062462880679
-0.036210116118244165,0.5029678546521171,-0.3039946578449508
0.3020502991564416,0.0,0.23802907264750295
-0.135742,0.5575681986087144,0.016847824479928636
-0.135742,0.6084910543237612,-0.02726047462724862
0.022461,0.7601014539520727,0.014232718435035867
0.09076739801007862,0.5437408988396536,-0.1950298438342244
-0.135742,0.48821024183425316,-0.26360293289761627
-0.23003890275503747,0.0,-0.20748934142801914
0.1019749356163944,0.117188,0.16765069633738378
-0.18428041754004543,0.3402033994578096,0.3001356795654686
0.022461,0.5331979381535699,0.12653217266951924
0.043885537817084944,0.4220365506087598,0.15270594791541656
-0.1489690222930027,0.37645742318292813,0.2883338286154972
-0.12159246468616747,0.6062642366732727,0.2910216704908535
-0.09251343646131488,0.11101815960279061,-0.3044688377186958
0.06144880233259158,0.26976899012800387,-0.19007781156288392
0.11667664240678641,0.5015934955336336,0.2789900016716055
0.07639625015737461,0.22972908138571418,-0.19317016857654554
-0.13325239492676394,0.7025660808838359,0.19413963976923376
0.07928767168633771,0.16958386545310328,0.1790252433859558
0.204764138018314,0.06838792791109087,-0.3715749314440914
0.022461,0.1858958529708819,-0.15990724427563965
-0.135742,0.4745305308795322,-0.0523332693440243
0.142441080304559,0.117188,0.06861504432372824
-0.06989440658253063,0.0,-0.39639620393739405
-0.24657884497486682,0.050781,0.20700077193481517
-0.135742,0.6521651015079065,0.18618257726794818
0.17599749932893965,0.08047002287239702,-0.186523
0.110352,0.7704147399106057,0.12284993664822624
0.110352,0.39449996883177507,-0.2486367261664133
0.10590531510270738,0.7572139982153193,0.1665300253749256
-0.135742,0.3465746234978976,0.07213233243516612
-0.135742,0.17809613589760795,0.061230669870522225
0.34668,0.03133330950363402,0.05530583257787518
-0.135742,0.47250576131593575,0.2227572863892016
-0.0011868168367871607,0.0,-0.44224573476491424
0.08279288301203044,0.0,0.3683871543886046
0.110352,0.6214971103082466,-0.22637965593067647
0.022461,0.13841964511454644,0.03955316393173651
-0.11335368042751705,0.464590482924851,0.35455785120216526
-0.31305498370774426,0.0,0.2577368230602624
0.049380295266973295,0.6372653156163698,-0.2892444802597214
0.110352,0.6623155385170069,-0.2550654775113305
0.14145669674167186,0.32626807179982736,-0.28870633477498825
0.12755683220825753,0.0,0.26833252174642297
0.14617964481819345,0.11260988640097519,0.2334131179712851
0.110352,0.4767100583825958,-0.273950713514088
0.027830265043124754,0.0,-0.3881003027836295
0.05206033980971017,0.0,-0.3467226647608993
0.07633805376120317,0.3830008557593024,0.17831331692536165
0.13820596466981458,0.117188,-0.2703321573331024
-0.135742,0.7425146135649844,-0.03743396939207749
0.026060946126011883,0.6594691704025977,-0.28405594219912517
0.12005954965100488,0.04068423727632198,0.29979482847616384
-0.135742,0.06860598147752323,-0.2566714977123336
-0.31543,0.02099608947106698,0.057483070417890886
0.04837305660899922,0.4408071324533391,0.3382053162661442
-0.07325165607300477,0.8860084933359796,0.06855732228170523
-0.135742,0.2984548826935395,-0.035605584127819404
-0.1494637615373256,0.015188848444458813,0.24108032484087813
0.110352,0.4909144425344534,-0.2874504083373415
0.11397791603618147,0.03673813992260483,0.29950163628451026
0.055646509341346025,0.1936088719836287,-0.18887742192867168
-0.07208895004242664,0.16937323727734835,-0.3030005643828145
-0.135742,0.08304354343968068,-0.050306261205034696
-0.135742,0.37723238406926834,-0.0688901567314118
-0.06980105734013209,0.747772201292396,-0.24793949698038625
-0.27800842543672455,0.0444783498298166,-0.1394763711669575
-0.08518712158246822,0.9200623476933698,0.013110453114688683
-0.11232235478889717,0.0,0.3053598562283569
0.0918214263852864,0.0,-0.441201262502993
-0.135742,0.5105849148361402,0.202360175620348
-0.03766875300095915,0.14781247197005346,-0.3001368974297282
-0.09180243167829202,0.0,-0.4346544655107554
-0.06985500679176129,0.0972459108917115,0.38221584480487186
-0.08614706275553985,0.3546819656787435,0.2821573487756532
0.044573541482598254,0.0,0.30200557734416594
0.110352,0.3014176075347579,-0.29280037559264527
0.0011268770977557567,0.14831016233809907,-0.3748803866974769
0.022461,0.492367528679339,0.02046152564647502
-0.1316584991760515,0.48292582612495877,0.28206097696391075
0.07379688569963622,0.117188,0.17649514242952621
0.36989657231244044,0.0,0.10142049630063882
-0.14168072041169227,0.25145802567260295,0.3561540156809385
-0.2871909250363694,0.0,-0.20824742702114366
0.022461,0.684909308790919,-0.01829816071333809
0.022461,0.5485963534523878,-0.024385647028592333
-0.05709338242177965,0.8905605380552593,0.060111907792663385
0.06465922861707368,0.0,-0.37057271574118217
0.110352,0.18631354445577686,-0.28790653475667277
-0.11596475346394121,0.08947042901960697,-0.30630227650308967
-0.135742,0.10449014384091487,0.14460976317483448
0.049128331429481586,0.7213368506110323,0.25014746979742336
0.16939594867360383,0.013911694187925622,-0.249023
-0.2843467662976742,0.050781,0.08497850083404092
-0.08667744523773405,0.552333869429408,0.3769242637834473
0.10139641203254843,0.4907638270602776,0.1843614590119696
0.10460756470404242,0.8323007130126373,0.12148235770394375
0.00848377320729143,0.0930353104342352,0.4357760292497309
0.053711,0.4822422071527478,0.16670665630615597
-0.09730544719470269,0.4701876132219144,-0.3061965808832891
-0.135742,0.19008058687646812,-0.17736504080030732
-0.31543,0.019474141340137915,0.08358930911470622
-0.2717095257217247,0.0491899118389325,0.23239955763853712
0.02375622822525832,0.7767545864601576,-0.0225062860009198
0.13359989897725733,0.0,-0.44674812259551355
0.022461,0.44551032820418457,-0.06976273776846242
-0.22533755198978103,0.03342991599308771,0.2860232892992668
0.31457396402008286,0.0,0.202297761765018
0.03310079590051965,0.2932804031777897,-0.29880662348447606
-0.135742,0.20524481649687004,0.2663864012333183
0.022461,0.13577366052146025,-0.007601632346485643
0.0701940573234308,0.4005469165131414,-0.29955564400839785
0.37688106834519086,0.0,0.11634500119959018
-0.11961608120117534,0.3471180373525667,0.28171985916485476
-0.15864691323841934,0.1671128974122891,0.3730795969866076
0.024122647967151373,0.37769162412866536,0.3334052376323257
0.03673138426922072,0.0,-0.42838477467258035
0.30661991793078386,0.0,-0.30167049706963933
0.20143483206612825,0.06958016327716608,-0.3741961842540548
-0.18214760892220924,0.3430884318413912,0.29449614137162966
0.09584553573461847,0.5310584966859538,0.28418
-0.1622544240578832,0.012367063865258864,0.2409585167293174
0.022461,0.4856672235821182,0.1281927122695782
0.17949666155983932,0.0,-0.39088564716395446
0.35025142861629627,0.0,-0.12770264007862006
0.022461,0.7250798648756682,-0.07926001296476004
-0.135742,0.7233287047082391,-0.1085546349462595
0.110352,0.5423949547305672,0.2613722391550913
0.022461,0.5002663981235913,0.04454678771747801
-0.1296637403158193,0.9023553298412628,0.0474542009349923
0.022461,0.43118913839851114,0.007024484694983207
-0.135742,0.5975951013740237,0.025159811206729332
0.194336,0.09829249230249175,0.08348632656615339
-0.23118826136843285,0.0,-0.2786521000236021
-0.19501192233257927,0.07740193289235094,-0.3893239710246131
0.08980296560591017,0.09775498673287888,-0.38992605334973623
0.022461,0.550167305500094,-0.03155412738530372
-0.3644179861600839,0.0,0.14833978373181256
-0.135742,0.6788237659896473,0.009091788613444396
0.10028842872639197,0.08266711176779241,0.3705250117294682
-0.19079525158331123,0.093034599106443,0.3174662824030381
0.053711,0.2899640534830274,-0.17241454318098498
-0.04219506704460908,0.08491240388898398,0.2820605957762804
0.051693362175899454,0.04061905148828636,0.40681013909350533
-0.135742,0.29880856821210333,-0.003514060352747775
-0.04210938304284509,0.3277097449547335,-0.30195628300218175
-0.12152383077871308,0.0,0.33862645565073973
0.014283130318895523,0.10306652200555294,-0.41725111427011574
0.12099049141481938,0.06118865680899588,0.3821485813838559
0.05618793163206555,0.5445572646529101,0.28558630164820253
-0.135742,0.4997706104322546,0.022819011088537913
0.1272177943425845,0.021332111910982714,-0.3139419410090609
-0.37043880248756056,0.0,-0.2259214952114877
0.2980055570967849,0.05049939504727559,0.07861072404622634
0.05163090314082806,0.5275664295222418,-0.30053408089237504
-0.08156704762752881,0.5502183092679479,0.2902844265272149
0.1915375478811885,0.03542076118750759,0.3460446131906504
0.07760605858262071,0.603651798187273,0.2957368278172569
-0.10303033564711114,0.8668705152085682,0.10350908109716475
-0.09678851983987274,0.09220742933537057,-0.41721400640960726
-0.09434787167839546,0.7859277986894961,-0.29359075418848624
-0.135742,0.608037892596014,-0.1544003318345209
0.10608101337554542,0.1683645942367934,-0.36102078433618157
0.22091413924433248,0.050781,0.22895064199605053
-0.31543,0.0009676301525903541,-0.003168449912083416
-0.12368325786623903,0.8339666949021409,0.1573704505093665
0.110352,0.6503035200028716,0.20863336456132542
-0.03252720644993762,0.8784992024334571,-0.10174512595084356
-0.135742,0.6400895506656412,0.01627795119298875
0.04744191890341046,0.5952335460158058,0.36942554015159995
-0.02233004526965414,0.16652734924228646,0.2822737212648269
0.07021920259542752,0.5575566842580643,0.2970196350801445
0.050115674054239306,0.8885647883948374,-0.08108296487330464
0.338867,0.03958367733979446,0.18052148690415998
0.061130675723222665,0.15117408806835989,-0.3586217255021345
0.061706321376953165,0.21942493901320687,0.17478176886962318
0.09320855259346979,0.4010534653478255,0.2784744909475568
0.007769168248070099,0.5069449040720675,0.28351857355468324
-0.135742,0.49334027662485574,0.22358260249326076
-0.14942154030285043,0.0,-0.3881597274640143
0.03879773490142944,0.3923313703262044,-0.29931777618944866
0.28016556839209655,0.0,-0.2602225920729104
-0.135742,0.15358467910496149,0.0133459512431916
0.2895180732822036,0.050781,0.21402450213244228
-0.135742,0.6421177461435895,-0.102188007709512
0.0930850772750064,0.5796590875324636,-0.18207845311198126
0.3429543750576729,0.010323643124648188,-0.22856160554199872
-0.2988424673243256,0.0,-0.21812992013877808
0.12494642939095461,0.42235078155882577,0.22210021140997227
0.1044947346071172,0.117188,0.14093386388542462
-0.135742,0.3213884259994925,-0.10542389524364884
0.06900127496582459,0.3547033935477235,0.30169329511680076
-0.11736992290089503,0.9124793091115034,-0.048023899713991854
0.110352,0.43064717244508227,0.18813062372339076
0.06955782729764348,0.40863420815592605,0.3573450140548248
0.0928743425619468,0.7045748563052363,0.2540632425606018
-0.20413562541334326,0.050781,-0.005647409444115601
0.022461,0.2276889694027461,-0.14973549107162185
-0.12047211076838034,0.07315131173735685,0.4068985762233899
-0.2965766132190079,0.0,0.27941555592115735
-0.0012292400483726925,0.10783882233989633,0.30146312811555664
-0.07342508528467498,0.6395024164444436,0.2748942567354877
-0.1774457985775406,0.050781,0.10704813238133021
0.2880298114997326,0.050781,-0.18686662198445658
0.022461,0.5163663901824338,-0.1102538249502856
0.110352,0.7964334848402201,0.18927037001163693
-0.18458588886754196,0.050781,-0.054473258906485966
-0.13518225993117786,0.7868074348481038,-0.12593005663229523
-0.135742,0.24046379012870903,0.13826790272586548
-0.135742,0.08173915372561318,0.2588622292153368
0.110352,0.3590685289661899,-0.20243519008953922
0.13749950474087433,0.040142889910921874,-0.4354192624700148
0.040950509731747776,0.117188,-0.15660157428357002
-0.135742,0.4957590704807527,0.12149438733826795
-0.1298798196167935,0.8521789726085095,0.017194871714103138
-0.07060992345087841,0.0,-0.47125845787574816
-0.11807961626837234,0.3044186556896791,0.2815850297818362
-0.13994464865221198,0.06464154784180609,-0.03970910763023651
-0.13564965003398152,0.8457479376249885,0.11430381460953021
0.032349505310362105,0.08566949298067025,0.35445002055760305
-0.11784082328124276,0.6563978407987128,0.2714285343501564
-0.3285644927302172,0.05025309395543951,0.23025338354153968
-0.03635011077442578,0.9041663931630786,0.046367377477148926
-0.135742,0.2189297231151247,-0.06939349007854051
0.022461,0.3051007584062903,0.13596670424132135
-0.28073108201668073,0.050781,-0.021753543221598726
-0.13289549947629536,0.805136601516079,0.12031236299380774
-0.135742,0.8696782593149034,-0.07722221010167588
0.1256829781572911,0.117188,0.24163986921164618
-0.07481676199961262,0.30922773585945124,0.28213265997768194
-0.24961872513177893,0.050781,-0.11868851519403348
-0.10471019751144511,0.45468402568448835,0.3653001776851271
-0.15195929506719336,0.050781,0.10330803354996215
0.022461,0.20567787757862394,-0.022734907944599675
0.084391762038207,0.3125907321453484,-0.2996609864860786
0.022461,0.19084896783037497,-0.06608851513264605
-0.13434697096002096,0.8252613790008408,0.05282067008429581
0.022461,0.6494818958335125,-0.021105990039253203
-0.18910605068184969,0.050781,0.21566291735903068
-0.20159795564475574,0.050781,0.035422191417314314
0.110352,0.16188615721134714,-0.2725181910538026
0.10515114804720702,0.8433774689733274,0.13279445640601362
-0.23878476985180896,0.050781,0.2131624915831077
-0.011447506704409832,0.8603343376584923,0.1156143520843089
0.07109858003583197,0.117188,0.16720970684290248
-0.09967756476858089,0.02534483795630983,0.2818243584990505
0.313390167218046,0.050781,0.029684632451879044
-0.3753278241746464,0.0,-0.09783870797276
