x,y,z
0.3330858274052676,0.11825623832759263,-0.15225893813449962
0.12905184238377088,0.8115145149087652,0.15571525874733433
0.35608061194719953,0.1307440652574722,0.0019122623411821208
0.12526075036796352,0.25802336485333277,-0.26182680932875696
0.24627428920336675,0.5378287341607008,0.1485610077755981
0.014103165626754115,0.31701337412922526,-0.2291650574383314
-0.3092410364737005,0.30320029026797096,0.2945691817412982
0.361592920651648,0.1671109400254796,-0.08143936685137551
0.22427021210542047,0.8100928829306545,-0.19656593044869988
0.16479935612889665,0.4400547527832896,0.19482197689160663
0.295448006083989,0.15540595461109974,-0.18622215514249768
0.16849514187855696,0.2476353734694054,-0.42863624178569026
-0.16783423721964116,0.4857129934922178,0.14865195383021212
-0.19709975565909124,0.3354014052878371,0.4328690342325221
0.24975329173779853,0.5593783571028192,-0.1269786243069004
0.020021503865363558,0.24798068164004097,0.4901004831732085
-0.39281960767676694,0.11961702226346747,-0.13598201137707058
-0.21309926029871362,0.33386931277035575,-0.046319777077454855
-0.2537131457296356,0.1410810759478636,-0.1552549381944387
-0.20602506715244012,0.7380781111973408,-0.2628042989137617
0.24322289368350514,0.33158310032947985,0.07583421236765256
0.4071258511496031,0.07973394489359412,-0.06244193833072544
0.3347924181854316,0.1980749346342179,-0.10770711803615586
-0.3983779020863888,0.167881294494714,-0.015247822915591461
-0.1318699729523967,0.36197605861256593,-0.17214359069753304
-0.22525476249342355,0.24303760304387273,0.20298750507707708
-0.03311821528970729,0.2554269372079093,0.49116432143813377
-0.24352457165751407,0.1624607623648073,-0.23202460370651734
0.2473124842982359,0.2459498939202202,-0.14333809221450486
0.42927795267380137,0.07157412980052771,-0.06255144598796776
0.05039394424407673,0.62698671926113,0.27487121610953663
-0.31615237694470555,0.20616087597523444,0.09901546496834056
0.21400599227684117,0.1370494616152842,0.00664228174849231
0.2516984013109136,0.806532957533007,-0.27213902646422305
0.2822961648015291,0.22246652383194465,-0.3982037214113567
-0.1587512796946942,0.19971438793281215,-0.35816090868023276
0.15003193165377796,0.32735989935766513,0.19246827877103886
0.008777792271371286,0.26954764356041244,-0.23002925836971042
0.0498377213113672,0.21071989822208356,-0.30632274240090324
-0.12788665642878108,0.27836824140322175,0.3922703341158948
0.4007033055346141,0.16072346711259472,-0.28582165661078823
0.11949151755097859,0.24897912970592329,-0.29642709351452606
0.19655693028872212,0.8132786808048024,0.19883407311578846
0.2875587538191477,0.8190196734753081,0.05191286415255761
-0.45874827182195194,0.15785779366237593,-0.02975760325023194
0.3178777079412778,0.04830508383052631,0.2663455269338015
-0.025582434925850578,0.43136922229338054,0.23082524288223047
0.15084559013895113,0.7507691791142035,0.3209364374013567
0.3551889839937578,0.11604678931671933,0.05288025769206427
-0.17918748085317499,0.5169610434756267,0.14403650036953458
-0.05714524284718013,0.20998218086919987,-0.38376225823635923
-0.15274504141131978,0.6581956693898813,-0.24398953832530015
0.33440101502086994,0.09692504469596173,-0.07007475836394104
-0.30856981984234105,0.12077764809555283,-0.2850782790964905
0.37493575899262693,0.16045602516718654,-0.31126439308539766
0.23705048313779886,0.7769365953068974,0.29883418154358726
0.1629691484677213,0.6912278648887732,-0.2687167103501431
0.36651355895754106,0.13235485819983026,-0.24115155647507538
-0.27171317072930273,0.6386748474715176,-0.02639237600022082
-0.22072263958868438,0.49162111867334946,-0.04572992383313309
0.3925157250464473,0.042042934975105584,0.037547104390036945
-0.27985621532605975,0.655966461086618,-0.039236893115371735
-0.19561464295571687,0.17466451626374976,-0.24173362827248776
0.2871542611991942,0.2313112164024175,-0.3008627452974145
0.22661316603863907,0.24897685665637073,-0.44711457737605187
-0.21453962293538847,0.4804473639635883,-0.06182106834759443
0.053741490439162876,0.20431871621880016,0.06621464055745233
0.32491199404300075,0.6838713174046263,-0.08238035317753849
-0.21205602473872578,0.43079672265145674,0.04778187726888475
-0.023440738546400608,0.28189698319466905,-0.2589703797691953
0.04592456446451103,0.2522974881449686,-0.3923749797828011
-0.010878898581339926,0.7567573920739264,-0.3385120936616569
0.3022210003117183,0.07094012339212122,0.14714774546138154
0.3203811273220811,0.7508198541731476,0.17448187976701016
0.13082228389756084,0.26306085971000526,-0.3106715788277337
0.22943370313698427,0.22628951827213273,0.13053573568805574
0.2764306780438276,0.5653516626151892,0.14602570490214362
-0.1960327241383574,0.30483635583664237,0.14494767277062412
-0.33433616721880743,0.8076617613587903,0.08102035668238206
-0.08660882557290092,0.7289539183638879,-0.31112842822395914
0.22793484191909158,0.12599277531082184,0.31672764419344296
0.4672149953635896,0.06471899178357919,-0.0883296642749344
-0.11805188760871586,0.24163259790300304,0.2773948753129159
-0.055694410244332214,0.20650014754038815,-0.00382557690228365
0.41798431624423266,0.08495391748419431,0.0434061616287973
0.2919327229971135,0.172404643019058,-0.005011870623886722
0.3018171578528894,0.2061414901945898,-0.33953213057748494
0.1701581893776496,0.8136209628022956,0.1303801772600123
0.040114359475156694,0.25079963187591003,-0.2748875034969322
-0.07970711711698608,0.34214336861126904,-0.20845558518045215
0.34040266626219723,0.07548081846032656,0.16251102144898058
-0.0353451734106581,0.7839124317266647,0.3446983373171324
0.2123768606141188,0.7794638645834732,-0.302734571592495
-0.15437450453101753,0.5790003591230422,-0.20147189074361732
-0.34569205056976093,0.7933099721851276,0.0735601630004724
-0.10414688283612304,0.5163871424643827,0.21083541378631404
0.05785102548869252,0.5020194476506372,-0.2311275573024599
0.2772522656743163,0.5594078954066275,-0.08782702707561564
-0.2914734349999044,0.2008902504118349,0.021579098961517922
-0.02371283777296085,0.21169470901953086,-0.01911624187320876
-0.27300496977683186,0.8101332073842759,0.0647973588066083
0.25013378870613356,0.3179876825710935,-0.06942855604006179
0.2668674304098235,0.43377726592969557,0.03614275599761594
0.3747684324331248,0.05047998816943273,0.17283028252615842
0.17292144663210107,0.2028199591513927,-0.3002034932796697
0.008851793485238152,0.7706342768756367,-0.3471135917503427
-0.2252848430810292,0.809235908320156,-0.01844304975196683
0.2259144599081178,0.5333531460808764,0.2090271616184553
0.08364518865108167,0.8094017719590357,-0.09223285611273663
0.23804922335874218,0.26488840129262203,-0.4578739649882276
0.28265064778348825,0.1402056904970103,-0.19852919568493121
-0.22007622555785225,0.3655988362436467,0.03507103050385357
-0.3461324775492992,0.10928337303244133,-0.2604207886550389
0.16705637975233914,0.15835809713951138,0.4287282858258745
0.2994360265681605,0.11459123551667356,0.14079151119188157
0.09664669730221069,0.6976156273949241,0.3010542098239078
0.26963495078650196,0.21903304968791432,-0.10143234694359689
0.1139782211405179,0.4023513870367425,-0.2003358562894745
0.27980282091216113,0.11545638026752762,-0.052830826995796415
-0.17415642795295225,0.2693518972149087,-0.1572195139352267
0.2829385245099426,0.1494803155118522,0.09293459107816203
-0.1556953577234335,0.6888283149128632,0.23634095575995298
0.350015161790246,0.7253420539262295,0.14233781880093557
0.15636950584330525,0.7742252699837595,0.3344653865462198
0.00044553911955034185,0.21316450815603705,-0.3620395790516913
-0.237726801194967,0.20452782835708175,-0.07019256380032053
-0.13627816843892884,0.22431269530049658,-0.1874618537511302
-0.19717156613451933,0.46252598442648146,-0.10473560449918617
-0.22030191155961037,0.18597580936460498,0.05679291716169253
-0.24099552293556836,0.1767622462026971,0.004242512565919773
0.3741924113391185,0.1117360089627038,-0.17852565776851395
-0.1486697704673281,0.8017785631379012,-0.26188386610631453
0.24969549670608018,0.2065811233850798,0.11149040241347158
-0.2061979579580516,0.4403209217267308,-0.06728815238466546
-0.15638928464293297,0.47726714403503784,-0.16426588650949692
0.33164207751402885,0.05695942319866362,0.32525715253955856
0.20177914993634893,0.15022618003220972,-0.14064327545955368
0.04345745128810783,0.22083678125789286,-0.34292865250101323
0.23950985670862776,0.6047143477668063,-0.1654717871197206
0.31822661771548344,0.6491191865438181,-0.05468454096472504
0.311464109699527,0.2562219712485797,-0.0714786997516821
-0.199882146025656,0.794253126110695,0.2795862732316647
-0.1643719211737561,0.24353896624495894,0.24424066928390759
0.2361319179730296,0.15561541525710607,0.20515469452678156
-0.305688170104259,0.14596371997005225,-0.35154952623619545
0.1288080167273924,0.6909155423170611,-0.27985063148037004
0.3772907194742396,0.11253581306095575,-0.1235878119242881
0.3102424776096417,0.8180171524515237,-0.03462828229111114
0.37622634839364744,0.768669943424712,0.13342664529323517
0.2930135262346787,0.5341494560817048,0.059435376080065216
0.10795896926529086,0.8032437690755918,-0.3070140726650004
-0.28936773727557846,0.19659558006939382,-0.005780526057124001
0.09668525007864848,0.34485798842015863,0.22220494440583488
0.061218362736932874,0.2126509527593813,-0.020866785237617785
0.019068773200578135,0.2263323944759706,-0.2513907939782063
-0.2560818805375967,0.8067008950343384,-0.173115042504341
0.2896891647964852,0.17756940094626725,0.04915020774215638
0.38442072722195064,0.10054568459759476,0.01348975462033643
-0.14510749509305668,0.5467564259993887,0.1924169818363779
0.237086368031892,0.18503388260984469,-0.23754256757716674
0.3930310190317619,0.7993443037614353,0.061617686767800495
-0.37335831493703175,0.12125793244578537,-0.13758172456102905
0.04781856266213171,0.2254842952232407,-0.35901151402065895
0.30243940616221343,0.6149182426816748,-0.06140564811069888
0.37327507482162836,0.03909996730073663,0.23439526259918037
0.28029116179634594,0.23863303850503778,-0.4055968431899557
-0.2763344062428075,0.8086061411087058,-0.08925726726685831
-0.17164156863211177,0.3468583920829852,0.16260859500273306
0.20814968967699904,0.13229605989092458,0.3467692307083385
0.2849393003115394,0.7500425104216527,0.23950076294568204
-0.1943850897536139,0.8189026475167875,0.22656747917897618
-0.3628110898974847,0.13615906134642028,-0.1748022076485048
-0.04904973181247096,0.22553008113285408,-0.4393805683067852
-0.39525487175162033,0.10840914711252228,-0.18009067816370883
-0.3171842646566698,0.1579698052016364,-0.1177281107444674
-0.46024416781021427,0.271961601217532,0.14435547761366996
0.27566112542608,0.12679046453139856,-0.1115342332480123
-0.12010499460920204,0.6469252454196337,-0.2540196917610654
-0.12301785387110598,0.8096326903885306,-0.016104679445925793
0.3140028166643666,0.2594960223898537,-0.036871309597333674
0.0073874378786002795,0.8039480179685052,-0.19700287104195785
-0.20462674541291512,0.17121796615145407,-0.3891991233777031
-0.05476648033688096,0.2933791059533168,-0.2193522102945307
-0.2423423062876809,0.3100826375433313,0.3630811350826354
0.2968294090200341,0.10423586897631655,-0.04279866013204295
0.14221944938871292,0.5523252694790919,-0.21990423720772811
-0.0011205967322082504,0.20788148825065306,-0.3196243095386738
-0.31183780785542087,0.14034226176115328,-0.3108955733366991
0.0598215045003221,0.5765735254731598,-0.25052598339760457
0.2686663996910165,0.26093116852637255,-0.13521330148223434
0.09258982231041431,0.5322941487765508,0.2455097307330271
-0.23586429328200148,0.8065796593358743,-0.1691205118532041
0.0633146518864775,0.25328888577348646,-0.40233009975333195
-0.19932790156005345,0.3744241186730987,0.08313363796436762
-0.3386108913179452,0.8086300377400606,0.0010736986292384267
-0.13451216383889278,0.17054087436124854,-0.13004878765789998
-0.13444026727314723,0.2919588196483902,0.4340395956087003
0.10631757966606938,0.18618432830646114,0.35002700633549577
0.26245414270454026,0.8091581646311118,-0.25953019422094803
0.09919555860758433,0.16877782109441758,0.3507592767044592
-0.24071082303493993,0.19096243353168268,0.08491289952041085
0.3943274334913086,0.04288436338400677,0.14333772516623652
0.15245219775683727,0.25059133168850456,-0.2864138313414165
0.0585484321591478,0.27337406593140656,-0.4922083188086246
-0.18673125432862211,0.65545738613494,-0.21676926480073583
0.24711185117798193,0.21312693828165033,0.10174884144985522
-0.08664716991877264,0.25482688262607145,0.37202644027424053
0.3367981528404458,0.6698483750512112,0.025053055837337447
-0.23594998774808154,0.5894722500499268,0.06920831921221172
0.23792648578695802,0.4697213269303438,-0.10743621133153948
0.40498769715635274,0.03534639334508368,0.1451955618331808
0.28015934698985995,0.5776913988107445,0.16071375121689066
-0.04878990328729247,0.20944758271129596,-0.373570114599503
0.23818445595534876,0.48648581292064313,-0.11282431127906069
0.28472614219690673,0.0879908596180765,0.3497815184791698
0.3786090942514291,0.0167428130405537,0.21462801318801855
-0.2358163097474582,0.6958590742767764,0.16234534182208543
0.17572209511283662,0.814938460519106,0.054776876292841725
0.23146261096584508,0.14095226636392702,-0.1334798735010492
-0.2559029703642839,0.812819547475234,0.10247567112959595
-0.23991030004474334,0.8066226048040058,-0.16952990561864098
-0.03841113438230461,0.20297022912869173,0.14690733612277462
-0.06766364135552011,0.22870482328153813,-0.35941690584407765
0.2973937658475122,0.15909623812096615,0.0531525170057472
0.40492277184737546,0.15991676112477232,-0.28609097296518454
-0.43834658736253973,0.19398551237048894,0.002237892215855887
-0.3476768877675086,0.1423025232620653,-0.16260623877820046
-0.28279080793132494,0.16757585194713753,-0.12038310751913542
-0.18184570841941738,0.19561905281234734,-0.19891505157191786
-0.4386073499283961,0.2915437103417346,0.2250569398527214
0.25064448208530626,0.2188560614397077,-0.3715177611979189
-0.25626617166040944,0.17148801223834614,-0.023994803382088325
-0.03985540540471977,0.8084077309439558,-0.0763512201237885
0.1944255919388249,0.42324689814562266,0.1845992480822566
0.21442218817260963,0.21546978432818725,-0.3364068497332159
0.2952240043031549,0.10419769148846145,0.17303916732409172
0.32629669932916244,0.2432963759172227,-0.05339393449922976
-0.1837181583871716,0.3798481306760822,-0.10449915718257144
0.06541628315193902,0.3682863918704872,-0.2071632466712597
0.146476138742238,0.8135888742796116,0.08814090501855548
-0.3377047853251477,0.808596584836063,0.054156355751436215
0.42144496939241516,0.13604990865319302,-0.2879391873427113
-0.20064598208258863,0.3418287342011977,0.10984505609425535
-0.1511010883480445,0.8214013340504847,0.2706174656044196
-0.030139136754634362,0.412200027449587,-0.21471627750024125
0.09084739863637284,0.25191511780970116,-0.4229645153704255
0.382517533197995,0.12006761251210837,0.002232293049554165
0.15757455396583608,0.1636350003372071,0.4214249815207302
-0.01925648299883937,0.7544842465668993,0.3297286651716495
0.2959501601822838,0.15840981191222242,-0.14942543083068777
-0.13356736485395296,0.19727842792489936,-0.27797800615871004
-0.305008086658227,0.7651042386627844,-0.17619057086659407
-0.2142812566203941,0.4295339467848781,-0.005431601946851019
-0.04834754926786409,0.5782889459208502,0.24840496763070766
0.23093735494021034,0.5796730190914094,0.1948146244921687
-0.056502580299357105,0.38423866494007336,-0.20093002043133343
-0.4601946927235018,0.16856928745473065,-0.04389547281368621
-0.3975009376438614,0.1371668967341882,-0.08177398490665928
0.39649540379501585,0.09260219166902256,-0.08859624235810162
-0.15484621845740149,0.27410108680848905,0.33584329652790906
0.3071072538165284,0.15149253249830819,-0.11946799615976814
-0.006767692225460053,0.8017374407244187,-0.25509375197860706
0.249749842977459,0.2284902868685013,0.09593262283955233
-0.34563707890292716,0.7822768058641687,0.06151172421410029
-0.3362353099429269,0.8086001964641779,0.05866491463842417
0.06426462145459792,0.5492659753924315,-0.24230445414109178
0.1295178273910241,0.5276994528177044,-0.2207308375093814
0.2304545413265811,0.22469863973113638,-0.19460673963983474
0.20772550445833202,0.20780822444145816,-0.322266014398599
0.4104974496141372,0.17171927061127285,-0.3337862998475842
0.23255708803096511,0.2406775112048955,-0.15349674662227683
0.2699826595777274,0.5162391452673121,-0.07904859992833235
-0.12868950744076016,0.24234132898634073,0.2344013152485413
0.12639852752186126,0.5094130914179336,-0.2170915250882647
0.06425116132837122,0.5296534980591888,0.2490573613133649
-0.09379601038579294,0.7984592294653602,-0.32870839932626533
0.38758872761606195,0.815597202859974,-0.05103940369992413
0.09734663832436002,0.29121748115233925,-0.22215991525934153
0.3108598286271266,0.062404566067463946,0.16989501463086334
-0.23610082183092176,0.6826891427180164,-0.18417511549072502
-0.004456361261392171,0.21726216252380007,0.3949937628882231
0.22496621142719161,0.5826525449773198,-0.17211841464555738
0.15057408694075528,0.7958127319868973,-0.3285747801206156
0.23059980250863543,0.10928038655512988,0.16351772852771101
0.27094854874626356,0.23374608242556769,-0.3347974400467908
0.25695557005253544,0.5702836080560533,0.14791617905707327
0.016721912006397614,0.21213669718802589,0.42243965715697196
0.2795004995116767,0.2141918453539203,-0.24335197982341278
0.16059551642707692,0.3119793985188373,0.19874715556883593
0.3976039744994036,0.12154297337325046,-0.2389576269572447
-0.23095302763912023,0.1595744961556092,-0.3852244400010325
0.29526813570269095,0.5355690900149972,0.03870757971497469
-0.2613681487407824,0.2300684254372497,0.1529026925805676
-0.26725510191252577,0.16579898212643995,-0.16277470330810587
-0.2781621994541075,0.8034095342570657,0.2100267116242583
-0.21756062003819912,0.4501766770692748,-0.02821873320597578
-0.0826370826751335,0.17743098241704897,-0.2823597615032205
0.17109136078714693,0.810547,0.29968734952831944
0.2836221133499014,0.7687110864528826,0.2581804608297052
-0.2751262384015978,0.2609512268093605,0.22528843428409312
0.22891540842054398,0.20060011248786563,-0.1750306615946852
0.09934739687683877,0.19914493797853872,0.2892279324007826
-0.16990111780398948,0.40352226888527354,0.13693141499210432
-0.29560241025998907,0.1446979499392989,-0.08530280970413404
0.24824675986995529,0.1263253321235365,-0.05422007910700019
-0.262203281233453,0.7819765468444405,-0.25501692444463914
0.4015056924977162,0.14974193032869748,-0.2611767089413646
-0.11880076682861176,0.6112316588546097,-0.23852096592240665
0.026673034719418485,0.2617380907320248,-0.4596470913968817
0.04385911774726585,0.2124486158804929,0.4853488575969621
-0.09858527805233723,0.17706182444527074,-0.305644325742484
-0.11447258530497995,0.8063807545232281,-0.14071870780205387
-0.09369925185909496,0.23400294699226995,-0.2289011549773256
0.21266813322706335,0.7801529353877237,0.3144394567963504
0.2258500300694919,0.12302198779321843,0.3586663690279653
0.19604950340838023,0.34314554044589324,-0.14824687159596736
0.13519250329819268,0.44001627940630084,-0.19625914424208135
0.07125222469793743,0.5626550892841985,0.2564322827707913
0.22566887047405354,0.45057849297962443,0.13798733570947608
0.06881302757984391,0.24300833757349705,-0.3594202206195343
-0.2320228887250481,0.5481647374845291,-0.06890618780357088
0.08252904533302674,0.24971212975860685,-0.2300628314261543
-0.24404941301687563,0.26122710956543654,0.22932439661826895
-0.1881468342696859,0.6378545624374367,-0.20574407979964318
-0.17888561590806967,0.815987973501695,0.16042135641999597
-0.15793941943013468,0.8090102860830457,-0.07108851369623938
0.3641499260102128,0.08489071053778387,-0.07403360093341105
-0.29104040887772376,0.24357380621724736,0.17096517390323884
0.39013612926816255,0.02204452691620436,0.13686521791205136
0.1306705061483797,0.17389166476577117,0.358312939159368
0.18902458158714244,0.26087509186571,-0.19608234026406557
0.39725886608598143,0.1300031582510256,-0.19006982291435798
0.13029432411279748,0.26144251170111343,-0.2126756887701835
-0.00627078328598743,0.20891612223107597,0.3547740477204614
-0.14526182922031372,0.3796270226552647,-0.16334266279544127
0.29524741331876375,0.15973729397923603,0.058527732572225495
-0.14372570915511645,0.3329571034426083,-0.16266338002069827
-0.060643356359799866,0.1952238843196737,-0.3303607185956229
0.22262360104192686,0.8119078175121148,-0.13853430975430958
0.35243261398942777,0.22199865548529066,-0.3957583620219877
0.24203305615946252,0.26934245797777895,-0.11235504346886473
-0.08481528307392294,0.5091621266284727,-0.21579921564973
-0.2713556098041218,0.8070018360397625,-0.16895735684279373
-0.3706019309932921,0.2199623224138454,0.11229764071755449
-0.09825661134897148,0.5805427544059427,-0.23292174958813933
-0.25964090675051116,0.6098026672234872,-0.03571114141312261
0.17560323121526528,0.14716749140113003,0.34816004725701644
-0.10028781477748314,0.2410402754607944,-0.22449433334339444
0.13993515439397528,0.6217225098716633,-0.24740454105324572
0.18443925540101536,0.15533641871672246,-0.02802255219257123
-0.01135494390842016,0.8026951928833116,-0.22700400560508183
-0.0809303686089129,0.24997268350352286,0.36339474837260255
-0.06094898892652145,0.24386357502703845,-0.45248479822804905
0.1829216875231275,0.5593523038123069,0.22207563411610082
0.004891453699527676,0.3488624621148504,-0.2196661764145139
0.2723812954477074,0.8156505043975172,0.22755108914145034
-0.27914565188415896,0.6564058117607215,-0.043383941353393504
0.31724708054853124,0.14697133862366424,-0.04997501274568065
-0.3092203956138504,0.1451432295179251,-0.23171104595530218
-0.23864105287164053,0.23509980121379345,0.17020349469921753
0.2276382484164721,0.8160621682328194,-0.01524600771933002
0.12169385154930952,0.1660235396022646,0.4334902734391688
-0.46820125307483623,0.23098769978253908,0.1079455237394617
0.3691476146221545,0.11651384764953704,-0.2032179653355213
-0.10133436517611324,0.20024579910834384,0.1210233989015927
-0.24900512300697503,0.6686703115561654,0.11801002492285224
0.14693424541661698,0.17374428255952612,-0.21244789939395634
-0.31294201686551804,0.2848179651955312,0.249834533696284
0.36865994286964193,0.05471352880002309,0.03519330259672701
0.32687661268446233,0.7450672809256206,-0.16352477939505852
0.2520277367869828,0.5536625625845035,-0.12132329178058736
0.06495835308695241,0.707447871389011,-0.30403209388193353
0.22923969283239792,0.1137594021938721,0.13749304555672176
-0.20158686811422266,0.4463161240450142,-0.0922594853286023
0.287141765308358,0.13906071207460002,-0.19900367942887065
0.25325369135784914,0.4366898150226249,0.08980567994491112
-0.11188704222815946,0.3431015191577525,-0.18570728880506848
-0.2042003360372242,0.14885782559316324,-0.17731680810491873
-0.41203960078022805,0.32666061493212906,0.2590508187222386
0.3443849120841658,0.16879087792663838,-0.27649586216931105
0.37298766368746644,0.09004773354981334,0.08466486558057851
0.36141607428210343,0.2162243836551997,-0.3944968123230246
0.29867731697763156,0.8180256559890272,0.1679140336162899
0.2748694370652755,0.43562424162639124,0.09010889348739988
0.45527065785364357,0.025011653510790068,0.05554588518585486
0.3982730259835194,0.020096785340071085,0.21985137617562328
-0.2762413204478876,0.7910509638822766,0.20755609310726397
0.19931323984323368,0.2543107094750076,-0.309223029033976
0.3824255461703282,0.06359027082894447,0.09708127148836926
-0.15443549812239915,0.5082993369793044,-0.1759509223621309
0.33324628609523566,0.6605321398605866,0.04085228209332422
-0.1896615779856863,0.15485993718379323,-0.1557709548369578
0.17404083061810272,0.731601354249109,0.3023737202627618
-0.11869678931587543,0.3768185128494472,-0.18266146103002492
-0.21882069503488835,0.3193973167273903,-0.06470667229200072
0.245117,0.3582451511020437,0.08621442873605481
0.3251319314041054,0.671986613817785,-0.06719783595202777
0.2910798166762485,0.816924152551141,0.20376791814287076
0.12762072900642624,0.15884770048021302,0.17064617782108468
-0.014919796755883355,0.663986236679922,0.2855239677980812
-0.1089716335381234,0.3146503700036718,-0.2043101429562263
0.04136427702466574,0.8138464566272443,0.2524701975622969
-0.11040201354312876,0.2273735516354417,-0.441803670406764
-0.01171826701646015,0.21534144105115172,0.062074251812050694
-0.3261316083716651,0.8086802900660286,0.029375715767367475
0.12017167357797476,0.6246780170263562,-0.2530315857966659
-0.4373675973480129,0.21982291677956659,0.09834207818992664
-0.3359289069786708,0.8086412205503674,0.014290756514649474
-0.16945510131363045,0.31073893235450173,0.18064189147660126
-0.20416262757164313,0.8082609110312399,-0.0961528085130351
0.3515591276325871,0.8141747759605236,-0.15213910208682627
0.30119113118584495,0.7695781812275608,0.23087497096810544
0.02597921266961644,0.23957731651517744,-0.267809128352468
0.19447798114677806,0.25424945979772295,-0.19139233496145694
0.04750879507362053,0.810547,0.0547630230281681
0.24478596611825632,0.19537430791090954,-0.30444708008062843
-0.1840642002567267,0.8018863773385996,-0.27752886568216406
0.33525728967548807,0.05979658755244997,0.10082594901819295
0.34598124000128583,0.14338838236141022,-0.12907718978424249
-0.2039318240830188,0.15867849627573968,-0.29647911539116334
0.3470346343337309,0.11319850025018892,0.06874413893232804
0.12859713700480593,0.2843294226988978,-0.2642114306149147
-0.3724336202078186,0.11758106671909979,-0.15227032408717034
0.25517795067514465,0.37884166324351765,0.0308450256779101
-0.3794202097243893,0.11214610776268354,-0.1748032622722534
-0.40137185022852456,0.2894734176046595,0.23018807919434298
-0.12428101077657301,0.23179565257415385,0.24381188417479915
0.22634567338582512,0.10033352712208554,0.4234902530941185
0.17433914296392866,0.8117511000132668,0.23159721335417818
0.21441364711329808,0.34549182495390196,-0.12106585981599409
0.12227710649410238,0.15962344695616726,0.29188472322925574
-0.4020317592632901,0.11404610373532065,-0.15188423234208692
0.22624922042725434,0.24144020138492223,-0.39917906636120615
0.2493969342297151,0.15842704841540317,-0.21624191983346874
0.13287451400883638,0.781607658934282,-0.3365527787411943
0.3178074447873454,0.14609070839732607,-0.09220883773574196
0.26270082986376975,0.2006360137503489,-0.06800462571537269
0.2933042642199863,0.5795048717275181,-0.04691267122500327
0.4054887595587773,0.15005617150925288,-0.3094365796018569
0.2711879146220304,0.19069826971809323,-0.2927726554601583
-0.18679746124650523,0.18891272578666912,0.07381773756103133
0.1127161173003366,0.1812857045252826,-0.12518677244114276
-0.14063962404779315,0.1772861690851497,-0.35836133840618745
0.08206220495854848,0.6279970610909109,0.27534434703101796
-0.1803927115215242,0.3394740617882709,0.15960432819422818
0.05135195937674585,0.8023598250071694,-0.306787922239369
0.30556493118189654,0.08755700117580657,0.03449385931521237
-0.3528278852562772,0.2993045912279987,0.24692155642923116
0.13318830255006567,0.15453174509450252,0.2565079472064154
-0.24050937979409132,0.22832457142924634,0.10912426402393971
0.2699617048655477,0.6844538469821093,0.2035398040570488
0.15703194020137828,0.6981025702215842,-0.27622886964505566
0.2572284958346876,0.5254005727304492,-0.10197002975395424
0.03950730591818636,0.4590592127319401,-0.22452204054748462
-0.08522041609095982,0.17225256426041585,-0.17850127778015867
-0.06780321676801253,0.352968779474123,0.22523187594881852
-0.38877316074735324,0.13110483760174874,-0.10028388091827155
-0.23331266540179416,0.24246215430181642,0.18925582524655366
0.29301438154268994,0.1548019349859147,0.08038853390563808
-0.36423131192154645,0.26079111356363704,0.16086567261970322
0.3077501554212015,0.1147489838805098,-0.0853420768323867
0.1824357399850817,0.24065518858163173,-0.271595853243287
-0.3249082478550638,0.26894289003361616,0.21137934459517657
-0.3098478896533323,0.7402576837516596,0.08036281453697279
-0.24577159329533013,0.7061998368975559,-0.1927722871128489
-0.11560952602584211,0.7014148958706994,-0.2820811988559817
0.03061538459843461,0.8160527652567936,0.32113878158572673
0.3129415910107601,0.0529429823175413,0.24967911821837852
-0.2352384491177677,0.15455016644952665,-0.3615408976632936
-0.228342532764447,0.2368328366745188,0.08707053252715488
-0.13205095204872758,0.4741212216400599,0.18644378588078517
-0.45634150866249806,0.2373118856548732,0.08338532160901063
0.33247122009000774,0.8173640568702093,-0.06925393397386877
0.29933201074620375,0.5639813419742825,0.07439803623421773
0.2584974947769,0.09304598382913093,0.17915103007808944
-0.22151668393458368,0.5734380591863498,-0.12345414553876774
0.003345081992887307,0.8162391544038741,0.23301046166566958
-0.34596645251566666,0.7875534756525625,0.07261936493037796
-0.2741132442884559,0.20471967970157456,0.004354353144563488
0.3872311774234751,0.017859868533886682,0.1740491700770829
-0.2669386705783129,0.1348733461840018,-0.29017527258036274
0.03211481381333467,0.2118795545449368,0.0579664420368492
-0.006853514091865957,0.8159545155750454,0.19830318136938985
0.059756535361542074,0.2808772913913139,0.2549989299567533
0.18074823233553253,0.27927287503889514,-0.17806600678986362
0.1396979765759604,0.7920334441251942,-0.3343083344490025
0.1940724610118198,0.8128888311738925,0.2134624570064501
-0.2816461657963979,0.19879209583431312,-0.010005307360543648
0.18408360736847304,0.429688,0.18381877728282536
-0.1604389177081229,0.24340464048191748,0.20104514317986139
0.3344410196535808,0.15412011695927744,-0.11567452092552839
-0.07323855027220624,0.24184551178368588,-0.46405412553157976
0.03497533372384727,0.23440916982608367,-0.23566892397652978
0.00012764501155703573,0.20045616560916651,0.1395526422707482
0.17359680436317496,0.28079252448253944,-0.22249134449467725
-0.23854789371747329,0.2102640054783965,-0.0407261753534142
-0.2074414146722033,0.18350477623985337,-0.19737048987087938
-0.11093750453580317,0.20196193832968354,0.09886004775096419
-0.22885085299983868,0.32975104010958234,0.04070541448093913
-0.25407445425126957,0.2837019983480628,0.2822640317327144
0.43109181770140387,0.14219629434928632,-0.25801749585671996
-0.15657840329342523,0.1932020082289702,0.0721039290768345
0.3253142185620136,0.8178955352291946,-0.04970347440052478
0.056924911927332913,0.26477108157116497,0.25861149104749703
-0.032332579608180145,0.2792023778637778,0.4938455894750873
0.17902378018667559,0.8112221746684004,0.266336651984117
0.37187638777870924,0.16355601695446156,-0.3158028683732758
0.23065239256454545,0.8161431884832755,0.002131339126126475
0.3254213016502778,0.6453273821551914,0.11751698924956927
-0.16726528728323192,0.29326302463011134,0.3841545955306166
0.06148228419712454,0.5412861647543619,-0.24079900091125972
0.36329394569897255,0.10952850490594689,-0.06544605259603423
0.17957538511361001,0.3223837814480824,0.1724113876441273
-0.003073801808159169,0.3370484794805705,-0.2233206893977531
0.13249377958495479,0.16436208976713995,0.10680664486524247
0.1951657547299143,0.8115138997036608,0.2833060232651224
-0.010368955528327615,0.8001175870154441,-0.30161442388728354
0.4393185409369067,0.049814919530925775,0.02724487247751321
-0.2285108220719467,0.5901930283452133,0.087859919281427
-0.2490545120993422,0.7149319435257732,-0.19928738415912084
-0.009470300118545931,0.6852004043485259,-0.29392426740147287
0.20925326206583328,0.8134180971059575,0.21653197110699804
-0.3877984214391387,0.2519253179382346,0.16480103762429976
0.08344585089589152,0.37934392812990886,-0.20418438139648476
-0.03006955909406772,0.8088644648602112,-0.060826410507122314
-0.010027674273446969,0.7552477094449017,-0.3375396101330684
0.29416750423904675,0.816368486487292,0.2341947831177839
-0.11914822633505656,0.6684513004435766,-0.26392881971345594
0.01673205371833103,0.2177276065507276,-0.03482486221419795
0.03459346277822841,0.3121495304582805,-0.21919688828278472
0.05218186184773519,0.24651564049457134,-0.35639415080405984
0.08963993414102162,0.4980817011881023,0.23753836084986732
0.22855884950416183,0.6646191589950676,0.2388744925137275
0.2434239761799944,0.21660007846298968,-0.2118104999531775
0.17908970325738227,0.13156103615226325,0.18736546913372995
0.03897242034972711,0.6000658555420287,0.2650833006606832
-0.2383566426925438,0.3131999546672244,0.37461684129448186
0.11266837863947322,0.3464190054065122,0.21769879539415118
0.25983450550222376,0.24555641490377378,-0.41669638440861023
0.18945268244493776,0.5665381580733324,0.22090277729396537
0.2553267477592988,0.8142776076108471,-0.09376488873168279
-0.012591094159198082,0.18737613626288105,-0.24692543344433823
-0.08029865237421226,0.2622330448705087,-0.24784570938778736
-0.0029767226563320384,0.8015304577612977,-0.26154525045016586
-0.15235251547940654,0.1830652102819897,-0.013824115487612414
0.3351697647781874,0.18006565848240005,-0.29648733946096206
-0.21882670468679918,0.45612359923562906,-0.017406175475573334
0.27344232409099956,0.5991347730503339,0.13439706788090197
0.16654824999065626,0.28211200650630996,0.20080543683982158
-0.14513865324562056,0.20017849690757133,-0.3293694678760635
0.3859972655805461,0.09811577729612597,0.05126074757543821
0.0874596336323459,0.3314274278599644,-0.20941626504197175
0.26940677502538,0.18370851452408563,-0.29015977593670594
0.1423791069862266,0.16421960600009533,0.33271908564030894
-0.16789606372602645,0.3170992462485209,0.18149194469713267
0.34614873875939084,0.14777305693698572,-0.13086534821890528
0.2808353236036689,0.06507860213820783,0.32630697146554377
0.22506032440306212,0.7757248821648974,-0.29287292370606083
0.1372808163305966,0.8126816066530854,0.11347528066795354
-0.34447032595299076,0.3583083839525347,0.3559962103468351
0.2719056532722212,0.4553675220243865,-0.007816160728762307
0.34968424494346034,0.16333324039399122,-0.26739975611715666
-0.23323150431830852,0.8087957392907619,-0.09041348238765236
-0.08587614174946973,0.2584233998151202,-0.22364534964025465
-0.196210879792516,0.1960063064124829,-0.17699012809835407
0.3503588617751374,0.06743940954641368,0.16913370705645656
-0.012171527445938336,0.24619335063200373,-0.4838042676995497
-0.24494635033184614,0.8038058889526548,-0.22874614182969488
0.22957739790029036,0.6240365298647559,0.21205856034228826
0.3543937131717417,0.17328275934049595,-0.29078401681835714
-0.4098425894778088,0.25689690112445984,0.1689900942254775
0.28297889110104796,0.17923842852295835,0.05778244476660775
0.22680708005024997,0.09720461244757708,0.27052725236440195
-0.1491339029954052,0.19265658597612131,-0.2774766150191557
-0.12727722952882395,0.5934768789202173,-0.22747668136052107
0.09189671815142852,0.6061795568050675,0.2656316387049611
0.38817761459688804,0.7867575331115662,-0.051643615478871356
-0.3751617225139374,0.185290181082355,0.048388517548175684
0.19557162761177024,0.4313953295131067,-0.15570631274316502
0.10321705466887246,0.3055307174309974,-0.2175821369115022
-0.054760520020743685,0.21036594448225981,0.02443200398756913
0.1188802426673784,0.25216867771748636,-0.4408536238491136
-0.11954153868971762,0.33142000941207334,-0.17975166018748928
-0.15604323557666477,0.17545425159450348,-0.06217775905880045
0.10705416275334333,0.5349343011209958,0.2424640165332307
-0.06285290971987251,0.5859762091987976,0.24610839423722394
0.0652676564195831,0.1751954948041402,0.17471518664659214
-0.15696491853622171,0.6409388880750106,0.21443637429842677
0.24940991116223937,0.8169838632095973,0.12389713932622289
0.29467852094393215,0.5647952876144517,0.08253001927383251
-0.26410741617735445,0.7208455779088078,0.14769451263053485
-0.228298497833677,0.25287210697644896,0.2436139021187309
-0.1577594793157425,0.7340904528740521,0.26148479551015197
-0.13673828977578462,0.21331435317156286,0.1841495702390861
-0.15426405084367234,0.5645462141579607,0.19039984647506863
-0.4238252034921251,0.2881866677167426,0.1853353741405066
0.3579281075646741,0.12142544522405481,-0.128042381312459
0.21914731394620668,0.12227429544989735,0.1116266410067458
-0.22633117727524737,0.24541668713193815,0.22255335219940364
-0.4405290558695183,0.1509578615814548,-0.09467286059065395
0.030199148956711046,0.23106602692330072,-0.27919753773947253
0.4042416936775098,0.09952996280656246,0.03732630518555204
0.027746927110192148,0.3695381821639,-0.2140480142790095
-0.08983491160483661,0.2996736606948029,0.4919459152203147
0.0495747268789959,0.2213693408280321,0.4335270634096461
0.11961071397718362,0.8112166653916634,0.15197216265042277
0.30967721389335073,0.81802392172739,-0.03400513096696591
-0.10504032191708473,0.18823714016224616,-0.053788718655931045
0.3134611220597733,0.17882378161762041,-0.07436351655382697
0.009778679178720082,0.7382378074043175,0.32310937400119943
0.3263859678245665,0.8195350243192925,0.031262171106906406
-0.1615121235509669,0.1702895038186634,-0.2857434139250695
-0.09718386749305649,0.46669643072122924,0.2079904883035008
-0.3642338226662116,0.16530425438677165,-0.0794222937677777
-0.14200457686717513,0.2826478792965107,0.211557361470396
-0.12484619048820092,0.2183497070024002,-0.4639297724483581
-0.20289485100447432,0.46970384628725165,-0.09849649009017443
0.06937451065613079,0.2159366426366369,-0.3233885649925632
0.24454846765864888,0.493214790711654,0.12698596983268945
0.25083290827673443,0.2240366136181773,-0.12678916106824614
-0.3038276628212864,0.1264270472957415,-0.33681715902147374
0.058568167920497655,0.6588145136580518,0.28689686205554127
0.009821775139407643,0.6473799245919004,0.2822571883289265
-0.22474894945251017,0.1445936092551671,-0.2375581915852155
-0.03500016478019057,0.24577775693173978,-0.4168443617434349
0.3083797168167491,0.2526557518965837,-0.0878507777435843
0.46656047594358196,0.09085678121453641,-0.1538222156241814
0.29007146024070146,0.7533289069199329,-0.22035149216884067
0.2679051861628963,0.26079239296093815,-0.13735372316590494
0.3338882130424099,0.8110390698874331,0.20665141772884346
-0.018897748039728806,0.22597771160886262,0.31406100930284153
0.33347836707717254,0.1282666431315761,-0.12218412512674384
-0.24553612404334868,0.3164783004497357,0.3514822423406915
0.1730328939971387,0.12933586347024237,0.23202993876892414
0.17974346780629824,0.8109980417815528,-0.12877577062487774
-0.32818707981773204,0.18246311129148124,-0.02637814587889456
-0.23609753711765163,0.26812305808912096,0.042781881303913874
0.3282521538135285,0.0771430691736674,0.023206118062622627
-0.13439531151510806,0.19290868957852053,-0.4098243099357243
0.3664961978990447,0.7547613144186887,-0.076601256700694
-0.0028278002013882985,0.2329339056000861,0.46623335319374115
-0.2349538183092876,0.29271056358550773,0.003272270665675328
0.2077456832261706,0.14014097711889018,0.2650763873543606
0.08187133671216515,0.8124698143156057,0.2887989715276442
0.13066375929547958,0.15242588831282253,0.2054692280915048
-0.2574750453907562,0.13898998740054871,-0.1644374599342618
0.22856492564653486,0.4158198780718866,0.11932826884703457
0.2351651274091992,0.30735659370345325,-0.11817087185744818
0.16496410368539818,0.1615469653087738,0.4457868134143053
0.36172538320319614,0.8051157693780594,0.16238195070419578
0.3371731944321204,0.06299347187397758,0.252519655169446
-0.2873677457835396,0.6755219000572633,-0.026511996636603252
0.1806594432809092,0.28063325101715364,-0.1715382268735154
0.425794089629472,0.10655548531297485,-0.22120740107839687
-0.26499909386132664,0.2148720168214852,0.12496655213801548
0.21156546546815916,0.14812534996999047,0.22429623823399208
-0.31117013288246054,0.3248021326757522,0.34734131598990325
0.31572568166935716,0.16232430355235455,-0.12146555192855861
0.32479950465227975,0.12410371727741404,0.08336910706673162
-0.16187679245179787,0.1811374912390284,-0.3988624458459064
0.1891636914380067,0.5291551921402704,-0.18368284029410462
0.07925555048000829,0.21418431510343575,0.4681966823677179
0.3313660015257568,0.7589110389622481,0.1606507522109223
-0.3443019896070828,0.3410754391629982,0.3244160428268786
-0.16842647278967868,0.28694360911638034,0.18695471506364877
0.29813850973883627,0.649922722423547,0.13345093320279822
0.14716827120084694,0.14973046290939176,0.3807545058007641
0.2864423519054486,0.24587183671821308,-0.42440063800893746
-0.2672940764494873,0.6794194290903289,0.08626090469171373
-0.44311404202803395,0.25438099502429995,0.12057547223037032
0.27978763914745036,0.11125568435804106,0.18939999388346312
-0.20177038339270373,0.8093598618721857,-0.01486001077266809
0.27537122071390235,0.10536413984303482,0.01687841475602897
0.2490983796708949,0.2160886636862399,-0.36298165245831526
-0.06663690309203918,0.24589686751117204,0.3538099130487358
0.2432046777229187,0.4990969741104417,-0.11091964011280422
0.24358111976402902,0.12725313228191398,-0.0318568014413715
-0.009455965778506034,0.29786373501521124,0.25898756340889384
0.20335192146177403,0.8069591075733182,-0.2730090708064977
-0.20328764402918015,0.28875052513153227,0.33164226068071856
0.3057511047658336,0.17861922724326615,-0.1026582609264479
0.08488445046874535,0.8036665637505351,-0.2933505424684767
-0.06229096206164568,0.44665366559475955,-0.2087865364376615
0.11768556828233562,0.36650409714312937,0.20330858197690518
0.3979825726750964,0.10150578542969022,-0.11613959851699364
-0.20589821937193845,0.33966145626614747,0.1074669175101029
-0.11585107580612497,0.2744920743109391,0.3968037673562981
0.327143088990897,0.14282367047278394,-0.012371053917850502
0.07713690214713123,0.6381944949637819,-0.2690339304004434
-0.1060341976176904,0.19334614165832442,-0.37741931265384554
0.11782632274481084,0.1874997495591221,0.4784409959664474
0.19283329316343403,0.16678176724834934,-0.1997245866662654
0.15295573431501105,0.29961748990477827,-0.19534558057749146
0.29971517897474165,0.5955199972238003,0.11474536688649485
0.23711281284101815,0.22233573269688228,-0.20995161363082118
-0.19289317095316755,0.24354323325211932,0.22194667796534187
-0.15867030081436953,0.539354723289783,0.17710092136949887
0.18506775695487782,0.33942070954302805,0.17057855813706616
-0.16545216693194106,0.36060014573917143,-0.14337335193245115
0.2053322017375826,0.8153183870769856,0.11851996457060882
-0.019889494571902776,0.2436260949082375,-0.37567736426861414
0.35614571545472473,0.10198969196581556,0.07516348822516318
-0.3485263645589232,0.10865820728068584,-0.2918143235140429
-0.0400517923792052,0.8122244210663274,0.04752152410001334
-0.2224799963470515,0.1455215294700441,-0.23961460391949352
0.2547551355111021,0.24844483117981628,-0.10271153504312285
-0.30211355876996526,0.19679405962333077,0.018142354813251854
0.20077927441444454,0.3214717441263128,0.1470685862302208
0.03279784832820094,0.19490296217446337,0.12766624529133508
-0.12785644420494374,0.7331300417280354,0.28023602439360207
-0.29911665783781544,0.7102262304426136,-0.07362671788133399
0.2529695472563642,0.4603406226442433,0.13401618900878645
0.042803681355963914,0.23607408324672663,0.4900569873635033
-0.2514826696344937,0.2696313601729133,0.24581044488187742
0.2093951649985322,0.21757519920828547,0.161922807192785
0.03769102217880377,0.21345317518447038,0.47617869474381036
0.018107815769345226,0.22118671823693517,-0.017517599266856726
0.1379486667635041,0.5430148558424768,-0.21988463821119109
0.3178116698830925,0.6287498589484388,-0.0168137160312243
-0.4579901505667406,0.1810573641938311,0.023122571180168652
0.12527849642990782,0.17521675206880546,-0.21327995062143362
0.08878057794680305,0.3280302225153278,-0.21968628348945607
-0.29232260026449775,0.806806649454222,-0.16947553454458317
-0.1797269528605217,0.33710042291068204,-0.12201363767135417
-0.12813520365858033,0.17260272557679235,-0.26940792097054395
-0.061224298445303575,0.36413754508674456,0.226814003012862
-0.00899369495347069,0.24265221251677913,-0.46725283045125376
0.22866641558994819,0.4605477455322823,0.16206632826983197
-0.45305041042561167,0.1686852831288581,-0.007112667623397909
0.17368807684543558,0.24802965058203047,-0.4304212459944667
-0.21031328485098877,0.44469385876594314,0.0586429477932189
0.3309547821403473,0.17513370162756794,-0.2838182733991364
0.195481591192059,0.37934068934729126,-0.1404463388270897
0.07873747826982354,0.27330764059707546,-0.24280588175632598
0.10519724848618893,0.21676216899433934,-0.29646225183618713
0.2636415799501395,0.22990000934671576,-0.3358812491029741
-0.3308353879464305,0.14112926690437613,-0.21947364420431312
0.26488124012741154,0.18564784634987858,-0.14756593680864694
-0.1201904089663581,0.23599557024616916,0.25835438603035693
0.3064131495919638,0.08697595214875725,0.03565677452754874
0.08149593339120897,0.3985964005054827,-0.2073764970092407
0.45589987396761866,0.11888816540590424,-0.21976887980758505
-0.14590847197613452,0.7800800116644576,0.30206852729306577
0.1926455094974737,0.8129169381865754,-0.08069300106892313
-0.2091424210047569,0.15270189623261474,-0.2629115750803924
0.31139831364875614,0.24035519452315648,-0.10482762338051274
0.14954110278941332,0.2923244766030449,-0.19827314150212783
0.05649290766737418,0.2307209593332589,-0.27016082943749575
-0.09413523509117509,0.38334088882467404,0.2033055280564152
-0.07592749282698236,0.8125240100526774,0.0616702277056895
-0.04697232115819497,0.6942309811181722,0.28839700654676725
0.38148049121497557,0.017617822570671907,0.1985397886092854
-0.12437034570664793,0.3832693103446561,-0.175891124226392
0.17241341272870742,0.13888929298495895,0.15851590012002
-0.2391830001165851,0.2665004042584669,0.24523018966719484
-0.2852727499892833,0.6891014753818899,0.051150344015783555
0.025693238753889264,0.557177644169955,0.25553059149940094
0.3270330837347964,0.6409376872577928,0.12724243980371142
0.22780892732549798,0.8160667560850512,-0.013934390830557657
0.02969178400329428,0.2261706477914338,-0.002495653909437373
-0.06601412041762768,0.17456850165003282,-0.18980934294315743
-0.175013485149643,0.1869009207060391,-0.2272446270988375
0.2648096179316967,0.7289978397384088,-0.2261156799635071
0.3541650854673195,0.10832576296474983,0.06616356991637799
-0.16508230993714587,0.559391470668779,0.1758631960232319
0.18072837465175862,0.6315939989379526,-0.22843160813724864
0.23494098876404151,0.30733629508306576,0.16670427682577926
0.040518746190767535,0.23789429115379807,0.2592513481999915
-0.4028801306657172,0.33977909000404893,0.28539399954662004
0.2920757802656587,0.09704767818572929,0.013930663428742628
-0.04610317179168332,0.2386888460682729,0.262613103935619
0.3009480986340768,0.18159890364523562,-0.3088956568101599
0.12654813657610228,0.37477570607290195,-0.19020523789663105
-0.44895872592307046,0.2889797988914939,0.19665390713571668
0.22762243287012396,0.21254874945842672,-0.2836389660842652
0.1817801203960374,0.28096844236710206,-0.1776854101319639
0.3761026184561913,0.11690399641117626,0.0014674956950263512
0.20171660832880456,0.16528371351036258,-0.19951110946417877
0.36040671134446134,0.11092190949807658,0.03827655534888885
-0.23413473426686043,0.3097038987121998,0.36847006276066013
0.21921508671165613,0.5169529702416625,0.17874812276262425
0.22318238840819205,0.12118082754307023,0.39209267399256176
0.29946886826113495,0.1593799616078807,-0.10811246858877704
-0.08588392581999431,0.2856335343693723,0.4355824679774065
-0.28321685670626356,0.13599063760678554,-0.1459868548047169
0.23086797903188572,0.8167326987565159,0.0982816949059333
-0.21910826359748348,0.2821841476998981,0.3058605978970402
-0.38320521355371695,0.17460163434909842,-0.0023925368856395207
-0.15892514370538977,0.7893857391681932,0.3011161717120152
-0.24729816915225672,0.16215480314989744,-0.22704297800886517
-0.07448837642954675,0.25239601146920226,0.38825831988242243
0.1944628757585905,0.13334273687280818,0.11774424310315543
-0.07007909410976056,0.21156575087480795,-0.2427428607399653
0.3355438744411649,0.1907662189043623,-0.03775756590360548
-0.2925076960776974,0.6888838226597184,-0.021186589680618914
0.42394268566404514,0.006808033067121366,0.11430017860726716
-0.03933865525023065,0.3183021983584894,-0.22470965935874115
-0.05755326629149439,0.37695725378385986,0.22751773232347425
0.18838421090676938,0.814973977043131,0.102730620886071
0.267189369551958,0.26985401671405945,0.09463339640742155
0.13013181162663098,0.646499262859385,0.27269063775857605
0.022251910115955675,0.19362880864998555,0.3520092849889765
-0.32051292883284055,0.16112925885955764,-0.10093481275012364
