x,y,z
-0.3067457419058227,0.6730421443271042,0.3411199767009814
0.07593053174072417,0.45875925449079796,-0.11453101218215742
0.0594586146630056,0.12519936880572902,-0.23813367837657734
0.2895015471348135,0.6244290410787332,0.15563928470582528
-0.2636279178176661,0.6481078031489909,0.4031469839798676
-0.13012786609727778,0.12963295360763263,0.11289011772473859
0.0022843169761525665,0.28079634449590335,0.1612235290607934
-0.1276437261467724,0.13983243432691234,0.1178829222602936
0.002577051793482539,0.15101172184281106,0.2707594377899898
-0.2522984062940888,0.545582959644949,-0.29928030771994957
-0.024864753558803805,0.11197378106381238,0.31443887967561723
-0.012776851743617604,0.8837432208093042,0.234205730154678
-0.11624492083796772,0.565386925399199,-0.28155839094702
-0.04672213893549672,0.09325134047767061,-0.13995919385963837
0.40856965169326825,0.6219088002837307,0.005367042080296459
-0.22453057205461172,0.5501558658243391,0.25711501661786296
-0.227417936327091,0.7742583076682995,-0.25764849251840716
0.15857245342137977,0.25329445483589985,0.09971623081766795
-0.3966376905793039,0.7001622587772852,-0.04602089450309803
-0.18965182967607255,0.8349490311003229,0.2306028613799721
0.10209367676869091,0.49014441818459287,-0.06823435996410433
0.4482912353936987,0.6338879835740945,-0.05460174457541885
0.06200345282984958,0.2615228515635606,-0.232193691417632
-0.13440274333362015,0.9004183995661961,0.1611387346738208
-0.16245887848294643,0.0295928282417786,-0.2581508385242716
0.10379944006645768,0.940257198396975,-0.14902737056112272
0.07625107542295595,0.06812685539357011,0.20449252377648458
0.2664090855982504,0.6316311935956045,-0.3711247254034007
-0.18939029705912078,0.5499758832749752,0.045312111576741115
0.2164936250420073,0.04124008104623392,0.05647774662382417
0.2492636816336802,0.7216445255868021,0.3192686628541245
0.3431669778499478,0.0146316547930798,0.07194328023331241
-0.06447531667593968,0.9595736676938087,0.1002407052699873
-0.1522363290622437,0.05821335906785955,0.2234412356048873
0.04754955126553219,0.4897571835951781,-0.10245419741685571
0.06614718890776299,0.58140648520991,-0.08922250879942933
-0.19119746390103298,0.6988466993392916,-0.38124300181139126
0.32703415343964237,0.6138548955041856,-0.18011741230198564
-0.360900218553266,0.7406252858740378,-0.07709938930072488
0.420138755516391,0.6228984338883876,-0.027087420460953957
-0.18832250283196017,0.7935658687549567,0.28445154173178033
0.0014824740127916194,0.6350029463838379,-0.4620584379007914
-0.07231372768455857,0.08029938998113005,0.3390700896157689
0.04344382932959081,0.5591474868037501,-0.09359506983978086
-0.3624074338766129,0.5588437415962222,-0.29277364481907653
0.3510579720604962,0.6283971423432357,0.13818737083202653
-0.08697611249410313,0.8303484454089933,-0.27895981418587995
0.2394518220614692,0.12538558439236916,0.20654948920261054
-0.1499183730640555,0.9086118223543613,-0.13279937392585556
0.07394967408860555,0.6083916968521951,0.28129071327432376
-0.23853865932590373,0.06692954842290949,-0.012116690060833324
0.2098338453905323,0.040616640225848544,0.2074259900567515
-0.4177177181759989,0.584805235585816,0.2566610558984595
0.17902385686522532,0.020951534410280512,0.3286930664744407
0.22174176700409154,0.9004045385301007,-0.14146854152153976
-0.19150767595163273,0.5790840573134798,-0.41517824777590606
0.3327686931858136,0.0024091179179445464,-0.1517730966645691
0.4559342148841309,0.6680505503289575,-0.10027541069686943
0.4100642495006781,0.6216545281101723,-0.008314935038074033
-0.037625477159683916,0.5538647759694447,-0.08331138822976648
0.29243304305986123,0.6646676494729408,0.3019522513815377
-0.2588975764740942,0.6277764516756041,0.4179544527298397
0.17247491534484777,0.43763539061913054,0.056581851945330025
0.4310225042499092,0.6472222898133767,-0.17930194243707961
0.26163862033082674,0.7143347618857299,0.3175044038780512
0.37047404660723515,0.003244902386893075,-0.1263909814113178
0.1840403971544559,0.10958201555097738,-0.20266538142886803
0.24314396726976623,0.035355038943357994,0.0847749871743601
0.0841452105179261,0.6457438026206695,0.4086153437770949
-0.39816360733069683,0.6948356445585869,-0.0954569614756576
0.23793851558648318,0.09196700362338597,-0.1311228462290524
-0.005241221740215823,0.6827867226191808,-0.45072589603000474
0.4269630590717332,0.6388924637472665,0.10414772704185973
-0.042043986412587296,0.5900341442621598,0.30146591040926435
-0.07939235270440774,0.3885661078695053,0.06442699571231252
-0.3325982312315911,0.566772039271966,-0.32754698633870266
-0.23672580293884457,0.03451526368605062,0.22839349966949515
-0.07592603520653932,0.5683730256417153,-0.12804338446336216
-0.32124413457102075,0.72745315742533,-0.2124120090513929
-0.023110103933703486,0.06308290745393592,0.29740312384735657
-0.11509936843382167,0.560294903305407,-0.03453117579905443
-0.36464603384039396,0.6769550264264752,-0.21505079567511318
0.4028336381017262,0.720684064394071,-0.196728322488619
-0.3879389814137044,0.6927390162013038,0.15447931316837998
-0.22620047741017488,0.5455819757002871,-0.13571431534066705
0.27555538717481975,0.6113265618230425,-0.2633624763927258
-0.24223765743219738,0.012807840405252086,-0.22159571437643072
-0.05125050955590686,0.47530917931231953,-0.08863219452859675
0.096020113989275,0.9841882900710184,-0.044806807515837994
-0.06655221075064502,0.011651458604774621,-0.3735095389245615
0.4263319313722079,0.7504657231255604,0.014411043748867916
0.1904613166543208,0.8386550268628323,0.22645467248737572
0.19277747053101443,0.6329630700715007,0.3178166059302604
-0.4667110787708556,0.5816916292469214,-0.07499189339117834
0.18774383439224254,0.8906543957211901,-0.1865050198916499
-0.08936992722569922,0.5940676010221739,0.41545894534126177
0.0014686684938763194,0.9822586820582851,0.0694495659677598
-0.05773189743149844,0.5698845807527508,-0.06792114960295001
0.1445279333643931,0.3033536912114092,-0.034723367570995645
0.15779405543089256,0.2622251077477502,-0.04771291979520448
-0.07238741077563259,0.8208377158003451,-0.2956934415139225
-0.0993152885667301,0.09432542078651854,-0.10016329347910428
-0.2231614648396326,0.03258734151834165,-0.2048742309956411
0.009590338422404206,0.12091981393651885,0.32494143629830613
-0.025000717386097666,0.9036986329706767,-0.213858149956615
-0.016470900359714994,0.06518576956549331,-0.2426695579893074
0.10230136802399087,0.8896194705438427,0.20831441401334555
-0.049824945897762374,0.5742384836077675,-0.22982255009403452
0.06540987903830615,0.14194523025032343,-0.15156109828663877
-0.28257355237749215,0.06308761380798708,0.07094259825427593
0.12093882091772834,0.5922874765093211,-0.34695232083236593
0.023001967858271424,0.5212188772949539,-0.10165334247012604
-0.11394523040405247,0.8812761312115479,0.21211592626680983
-0.19507746485650926,0.5497137490180135,-0.12722052797982372
-0.11114482897955943,0.928688978808143,0.13092995344733832
-0.10326190663646949,0.23484628520004694,0.11885112609596697
0.12588485495910862,0.4048723822125692,-0.0018252461109442078
0.09602033062722068,0.6237726830421375,-0.4406737446924803
0.2134595334326307,0.8116915151065139,0.24382616096792306
0.2962148875476947,0.7145434005556979,-0.3304029644524875
-0.12352565155890899,0.9529896613074661,0.01813567198169627
0.3368617960258299,0.018407613951517444,-0.0307319332031548
-0.3197544142520632,0.7779187481813109,0.0891330872818708
-0.12320190120519034,0.2760354646463109,0.025439572010793082
-0.08058397296859705,0.11872322184956687,0.16051789634383137
-0.03183360282653165,0.06590265172531999,0.25518697331593987
-0.15966732075312742,0.5591739886558206,-0.33401272085502387
0.45796734722568677,0.7139200190723368,-0.005018678463668911
-0.42169850351021565,0.6698721913026014,-0.043650930579786563
-0.13444942718415187,0.8429161784601857,-0.24546254551498636
-0.46728885267752546,0.5975016615087838,-0.060164271992603366
-0.059638663980676465,0.5749473437491451,-0.38449530594182435
0.11475839590601494,0.16659769069336816,-0.2707652201516078
-0.37405577492227854,0.671999121505861,-0.20316912567976808
-0.16709979489693447,0.7696750766842466,-0.3143173881595791
-0.30197868281207585,0.5346991261861059,-0.14781077861251446
0.11231170178854837,0.5950477776813351,-0.37664981750757065
0.3202119816280343,0.6280851072743215,0.1581999321248697
0.08594881015097165,0.15015901537811152,-0.24251152699738093
-0.14934330295803183,0.1882161895350409,0.007901765186230772
-0.06499256908611029,0.32760339210737116,-0.06654450792784593
-0.1692543957374575,0.8739098387046209,0.18115222488100707
0.07728757496583041,0.7058372619775392,0.3973596344860076
-0.14858216200690902,0.06965078628654728,-0.030767171339292063
0.165772267384871,0.1775962747846198,0.12178623504748809
0.057014244050130725,0.9915779080895658,-0.04068566878768349
-0.2943311787986214,0.5351232468343781,-0.04718199010900652
-0.3231600258238663,0.02578433502441205,0.11734624201014626
-0.10496220670199202,0.9631002636360999,-0.03946706397945268
0.2351890144829294,0.042606575024944866,-0.13011424320313797
-0.26501085900629234,0.1836765516757652,0.15544457389831795
-0.001165653293199783,0.06739968348140998,0.2795822057918535
-0.005962241333252171,0.6734085964143723,-0.4564621465660313
-0.40052054681430976,0.5256622610064764,-0.021760149102439716
0.11307069192921376,0.6163500602264647,0.29774957589660844
-0.08333692922065057,0.45513910183203443,0.04875075921067081
0.17682354488959098,0.22199635629465084,-0.03759009729216993
-0.2940421772465639,0.53520896350494,-0.015929250386248348
0.17053157961685292,0.26843236660114717,0.033517758660796676
0.14051953301913178,0.6004315298611101,-0.038251867887840074
-0.0710551458880053,0.9570747952300082,0.1028709684755015
0.09675244180609574,0.5934534117517165,-0.1852029620054343
-0.24166274794525397,0.5503173703330403,0.3204412790216727
-0.06805690579134274,0.14112460979139319,0.2926117742201718
-0.09920277517944776,0.8793423925181615,-0.2159542536597548
-0.23881578751863242,0.04606114730616061,0.21139011175378344
0.1598911953642701,0.9308771947630535,0.13787712475848574
-0.12049669366890188,0.9070056827138668,0.16417739362008898
-0.08961538837822697,0.5646349906125842,-0.07960929402328012
0.10460768875238086,0.06815367758273713,0.16853841575943368
-0.4294697262977472,0.5528779581166269,0.19860413452924
0.14594505537884775,0.10016527602286486,0.14261931870884872
0.010751592691065029,0.5815320466925571,-0.3179464721065853
0.06657561987061848,0.3178224400699701,-0.2654813375022229
-0.04011992225669727,0.5878932350917235,0.26996791700891865
0.04482981556874653,0.618435897369645,0.402103654148062
0.17895694084796718,0.0895594741797685,0.10080322442172494
-0.0835047595058876,0.4442450903539822,-0.013550904454948973
-0.19153044364176638,0.054159108879468267,-0.1760376342498823
-0.030077285041249152,0.3119726478956131,0.13968409062139903
0.0014019006714099391,0.4868668580259528,0.1369599370836042
-0.01009059307426819,0.8895044128305897,-0.23023991129317598
0.3264946755261862,0.834623756403865,0.10118727448760217
0.3100153207226641,0.024487004807273255,-0.045969063522985715
-0.4394883049453459,0.5723957087229221,-0.17330154944417103
-0.23070176011980253,0.8552934464942504,-0.11781358659687147
-0.003910659679225501,0.1352319232624622,0.27320155933813106
0.0043651772500960286,0.17537868925058292,-0.29565379391253604
-0.38158976980554893,0.6560397966062628,-0.2141398582957002
-0.39344669844721725,0.7065378178119305,0.01679103358117401
-0.18561401311825912,0.10165044902249436,0.1507234744105988
-0.024995014749780064,0.21162534879302075,0.18047676563935275
-0.1711854577300878,0.7897174650639313,-0.2880100425171077
0.029218125478897145,0.7402519476045529,0.3803047251960336
0.16803040271906536,0.9531191275492686,0.09005220267655366
-0.23689826735592157,0.058111635395007966,-0.12263024252104068
-0.24031190092646904,0.7567010626509052,0.29735194599699627
-0.2592163762593631,0.17840151277686567,0.1567654064692472
-0.04317045050026705,0.24092045556389727,0.20812995237364082
-0.2177341389456043,0.061790155685807244,0.15972211764419103
0.30795169589700955,0.6390989914542209,0.23729313217913142
-0.14876309982708272,0.1493586442428263,0.06018760456327304
-0.23349540307255975,0.627956526857949,-0.41079064843184343
0.11250414102568151,0.14518713641939396,-0.17063206686844953
-0.1179282695173239,0.6548454616012885,0.45661082900387356
0.17951548096499298,0.058465876916734855,-0.15612163224413994
-0.31764353434396597,0.7555690452469536,0.18148116166016634
-0.004461070922526145,0.08147953393772676,0.2907797957238997
-0.24211856651581404,0.7493102569072578,-0.2755834406281973
-0.10664131688365869,0.7900271776884358,0.34330880222090226
-0.36731180343216,0.7318292304200147,0.05839046693354956
0.11578887937212892,0.8067487877627155,-0.31446916032855543
-0.1711698043306634,0.649711511309337,-0.433452888913801
0.11147612432608457,0.2853731478636461,-0.08736025557925049
0.33727012909302767,0.845360660491009,-0.02942098715031616
-0.23290179182169987,0.8208161914995994,-0.19015009306902106
0.0062152629247236545,0.2860447181158474,0.16007066490792055
-0.08363564436563753,0.9202029675769453,-0.17344089300616247
-0.23682273555715141,0.5435270130212748,-0.19601966725753667
0.1874918455720352,0.6027907404877453,-0.1610586415221198
-0.2594095248628658,0.1820377608468871,0.16567640128478658
0.07540949919878243,0.988259837999414,-0.03544788946192627
-0.018441616300022758,0.7868897379848594,-0.3502793458050537
-0.01438756331443959,0.2153283557717888,0.21103236280078302
-0.1724805933175784,0.552772607258767,-0.10898142163181164
0.3065109822887996,0.6121745301313749,-0.1081180799720047
-0.3002228181422138,0.8165284325816804,-0.07107457565434912
-0.038094774961995745,0.33038970315487254,0.2991601979378975
-0.10222421864088296,0.5671532371458962,-0.35081167416399295
0.01306838568020333,0.9899936111629434,-0.006876400695430026
-0.07771944720744368,0.16077762244898486,0.3055566148857503
-0.4235605298939417,0.6704111500609309,-0.016523285645216247
-0.10290314571887585,0.03655481822050699,0.32240920452183136
-0.027517075053869765,0.9715591193020524,0.09165086631923439
0.09043570339127341,0.893209501507837,0.20710079140277177
0.1193437530762084,0.11974244640421966,-0.13083706697066344
0.26360247202920534,0.10393894376896243,0.19849748291412886
-0.078296485763134,0.565959410924821,-0.058165785169569495
0.18387414450931744,0.11310066107428407,0.1997886376820248
0.00845955355235717,0.1921195010825352,-0.321490606994326
-0.14486638984475986,0.162403372175443,0.06753289097342648
-0.12438934924974367,0.578032932690177,-0.419941482762388
-0.07655206963449522,0.7112811511338484,-0.4199391777010572
0.18472579813947065,0.9557442382976105,0.06929245822752385
0.37623903521123053,0.6175632218864988,-0.008885628459610917
0.3076587160631854,0.02511462668796173,-0.039454701827064245
0.09946116602401728,0.987643490681854,-0.0007450312371979728
0.27680746155334374,0.6105898974737869,-0.2423316598055827
0.3985041261435883,0.7404812967479293,0.15650558483340535
-0.31600990867815215,0.5858910169956217,0.37716164656824175
-0.2889697056051605,0.05973167440630475,0.09367485556802467
-0.03524394757545407,0.3878352368311239,0.11587412982135313
0.2933624925592489,0.6165865984699646,0.05815097148561195
-0.014454358099099226,0.974722269931056,-0.07956388307696086
-0.0016415438802550187,0.9784155281501862,0.0821336406801585
0.012767491595696748,0.5826079509394199,-0.2558349994425166
0.1586594829335887,0.7440068289438246,-0.374342085852714
-0.13621048364417657,0.8247923006797669,0.27673129516302863
-0.24720835664698898,0.5421512128587204,-0.09752870637586797
-0.3427096530792499,0.5856891090181019,0.3545530770808152
-0.3306333233793366,0.7137930623234,-0.22095891637725049
0.23663056092020318,0.6074820196231812,-0.22776671336046989
0.2559117298301674,0.030767738062141534,0.20938601811767155
0.1328151523961845,0.8471128766319015,-0.2624027270819897
0.19956571185143934,0.04631567408977305,-0.004373346080581906
0.12857463375115497,0.028723142167601193,0.3687372605090357
0.07088151140013547,0.598484204339972,-0.4156950338269038
0.11232275371079284,0.5656686386676923,0.06636945422023509
-0.07960894088102335,0.6786406575416823,-0.44368533042194513
-0.18295634595711804,0.707153121959049,0.391355803528525
-0.4319401835644428,0.5277955589385812,-0.018929437624111617
0.16326285716440453,0.7473500586628956,0.3286187725930774
0.09180369485836821,0.6321795375356982,-0.44588344161105226
0.22429340503050152,0.7137870349017855,0.3346170794980132
0.13208199697821266,0.46999401747544245,0.042854385154738606
0.19621715801334713,0.07928023736639314,0.2806431022132744
0.34609869634665963,0.6397234743162938,0.21556766725300047
0.10608080729669496,0.4029462310373887,0.08325140827438295
-0.0665087584346139,0.3359054771113769,-0.060462129320645264
-0.23734262635326764,0.001671695489462692,0.3182266235781244
-0.1271324802339551,0.06279203706006606,-0.10961963424645638
0.0654167052742776,0.8305424833099798,0.2850453141955923
0.07498953697776814,0.5903397283609114,-0.24384726008915297
0.19349039685476044,0.7478173879702148,-0.3596010045914897
-0.1909285182420148,0.7226618384877559,-0.3560356011790663
0.06310572835364184,0.595035746184254,-0.4066755473258495
0.442373128270005,0.7300676317049088,0.021931422408260563
0.4540086738420495,0.700961548866361,-0.06553233975763137
0.1932321204481311,0.044475994868706584,0.10716099517053328
-0.308058103072518,0.7363144974370739,0.2339825402419586
-0.46463206932547874,0.6152769920925355,0.019826311322029215
0.12977653111127768,0.09633087263064466,-0.11750928255878626
0.2549386947600222,0.10334857288075272,-0.141117010477234
-0.16305061452762193,0.05292659007059525,-0.1993906746727751
0.21550389881633347,0.10070922104995869,0.24756962738982285
0.35834580202468835,0.6274314823193391,0.12079916084720002
-0.11965098091858149,0.9563025770438062,-0.00797116715452088
-0.2488040271123274,0.008009772823422601,0.27779854777547225
-0.19021953981702988,0.576153829663058,0.4133514346575993
-0.23410912251157243,0.09639491423872777,-0.13281250263169625
-0.12239118361349519,0.45564872737189,0.018782519424652453
0.04332087532791588,0.5968638248399976,-0.42186397453792873
0.1442547818185685,0.8651678427717251,-0.23627695829948017
0.006447416138366944,0.11225738688770703,-0.23784293460413392
-0.005174029609746306,0.58779567495533,-0.41328012860873137
-0.37532465833658424,0.7048243823102521,0.1555621228472851
0.06800346269238627,0.07158351261554939,-0.2591753736678335
-0.023000963102495546,0.8656798794680736,0.2557551882897766
0.32947227147066716,0.6402786129521231,0.2292729780786301
-0.3317791768698445,0.7264184376663559,-0.18739049393011692
-0.14816500072448494,0.8923207148401143,0.16224109272237897
0.04871480160804884,0.24247321169123487,-0.18256999038306737
-0.25384684708001,0.8167024486348792,0.1946178155248891
0.12645995991884293,0.19726291907463955,-0.11415790405222302
0.025618220859009708,0.7103127894065279,-0.42852647329983085
-0.13080022232018046,0.8075953037999132,0.29988614117039586
-0.027534740744382637,0.31117981913600284,0.2819542305937423
0.19026551822235832,0.06522793287353927,0.04122401085548233
0.022570174590001088,0.3594048647884453,0.1376608700047331
-0.1910023454887791,0.7912572657427461,0.2856290156181995
0.22019719120619832,0.08749905570667534,0.27908053310635134
-0.20332679673466136,0.7287343725408857,0.35848203344078833
-0.25553543895774866,0.5399233554654805,0.0486789333593257
0.04282243237035929,0.209152842860003,-0.36546326483924196
-0.25770269540361906,0.846429848644967,-0.07467541144251119
-0.1872092723549584,0.9078817533948048,0.0563284265183478
0.021897721186579858,0.8203974992714148,-0.30946484772575156
-0.06447532406686782,0.1239844851179795,-0.24110260665337957
-0.42023513016039415,0.6758755970850072,-0.009044460114899046
0.04557596532659471,0.36561829512674276,-0.09185220296890181
-0.2585277943078549,0.5810447456319807,0.4080396629018347
-0.12579854286996053,0.5596320568777172,0.030403980828497035
-0.13036117932301144,0.5583102127725544,-0.058421224260007475
-0.44731197982506327,0.5362183627016712,-0.037954149265908996
0.11558502718679736,0.6219196591394857,-0.4343295391223858
0.2582306108248474,0.03329773056482366,0.0628959319845986
-0.07254392661159766,0.5668086514045658,-0.05291667191599423
-0.11962391424849295,0.627398137221362,0.46035560069001247
-0.1528031500242259,0.06214142120559982,0.1968077670362322
-0.03692847377128653,0.47703888557732393,0.11873227111439497
0.3447078702471232,0.7145464451935288,0.263065687591286
-0.08428147136237574,0.06474934021477602,0.2252535848499807
-0.018494961228836527,0.07944316502041009,-0.14607043168584843
-0.21024095022595202,0.1429951299447485,0.16340661483598723
-0.32301557994564445,0.662580075655737,-0.30273457465602527
0.002630258921349486,0.11579187625026209,-0.2447512815810334
0.08950105519929545,0.2507945589521838,-0.11966644716151253
-0.19416833393369,0.06333766041855349,-0.08262324161757462
0.36634096641845953,0.777890911672804,0.13569637798583764
0.09980445761751329,0.9763825478340681,-0.07534516860425622
0.3693122939219877,0.6373890006450561,0.18160535882510312
-0.08890220914851674,0.4672146471824724,-0.059192366679727826
-0.1200910331068488,0.062415132708417434,0.2173419857811032
0.09468302729546882,0.26603690942059016,0.15414687757775347
0.018810601774487047,0.5896880857739697,-0.40774047198871977
-0.05198199382666802,0.5858533193147258,0.2728221866751577
-0.00785989736964987,0.6865425807209807,-0.4478977658059925
0.4500525175828964,0.6841231496977762,-0.14687717719399374
0.4221612483921608,0.7402502511151149,0.09386812487435205
-0.12910814404161386,0.5832681211658606,0.39734452221760697
-0.043376277434490386,0.7379620982152518,-0.4011077291315588
-0.2185817469639084,0.8860513223020874,-0.04821591718834367
0.18205882813814023,0.7643375645536356,0.3062505386926459
0.1299474972357688,0.06050310385184502,0.3073098899611932
0.19846582880001182,0.04749550030003891,-0.02201792604788354
-0.4365295822588692,0.6549805582998023,0.10126286866203385
0.1365510279511883,0.7198460674778592,-0.40700927994018943
-0.13861322684249316,0.7682642788783748,-0.33261487892755104
-0.07340682948580565,0.5032554286592386,0.08489249925730424
0.027697344429244028,0.9737546139744612,0.09496013837810632
0.11255700799035173,0.9418576971114149,0.13731309679834264
-0.34497444856826315,0.7248749390894508,-0.1566893562392771
-0.30646778241119116,0.017198494834297636,0.19479926461636327
-0.1501468211142209,0.6343270874375687,-0.44764413298295763
0.1731623580210028,0.639063274321376,0.35210981728684443
-0.24814606911613593,0.01358763486494122,-0.21236487881436594
-0.08052325695568784,0.23523558013392498,0.141719244920193
0.23675687077543348,0.03482513817844053,0.21570097340295163
0.2665921345622997,0.7610919809821596,0.2725399295423021
0.17206235932048697,0.607210808872058,0.08157245901702917
-0.44634814759457037,0.5404532423744834,0.0920923608979517
0.31794903171979,0.8657628949305387,0.05345075300303584
0.18471581297277714,0.1121142626918147,0.21282536916399628
0.059530814636522725,0.8476651398395596,-0.27560400096193616
-0.3580808812540571,0.7397263492892429,-0.09490582348817764
-0.014424039215787707,0.7134953799191273,-0.426180728191587
-0.4382625961175444,0.6463547080770123,-0.05349486808820379
-0.0007950767766802818,0.14639236720121496,0.2803287778112524
0.0416448470796157,0.21057243218801555,-0.36575047201683497
-0.2924839104120796,0.05838922341824759,-0.044425767594957206
0.1160674682837953,0.5966596135378934,-0.03287947638522577
-0.04784858427138005,0.440465976557627,0.143742421338761
0.12731535558762094,0.602672476824853,0.081888497931711
-0.2556470268539029,0.5412504334322642,-0.17014229286527538
-0.30156827707705436,0.06255908563906182,0.01825300234279878
-0.060862858857928206,0.8232521975461253,-0.2976241121970822
0.416210473967373,0.6330077906829352,-0.17588917737784157
-0.3435990211874525,0.7368504341156167,0.14750797558972384
-0.3470126447894108,0.6501008419417875,-0.28049256939136413
0.1821508320403905,0.1568291362890574,0.10210379743667793
-0.26704950091811996,0.06530302786536496,-0.006729236272366088
-0.0888618548577135,0.30342435083841246,-0.055655556662525335
-0.03899601416496556,0.06843403532099687,-0.29377563591843386
0.37080256342136675,0.617462655421585,-0.06178068354883145
-0.07706209954309148,0.18247962082715208,-0.12198025534173013
0.2933984848176121,0.7402889074817429,-0.31016996516260387
0.2415365864494946,0.6328347908395431,0.24796572620745816
0.002126176743073086,0.427618805972651,-0.0874942648985057
-0.013647234693762635,0.06679504054643749,0.2696031786121882
0.2862144641724005,0.8808394737120313,-0.07928096894287368
0.376637385172136,0.8036000010931442,0.04052204223413339
-0.2903631217062541,0.7881146226065714,0.17512553823225765
0.014261994863636773,0.6281308728276682,0.43218225157117396
0.27087096849493664,0.6551764967872616,-0.3802727338934164
-0.17319048670504553,0.03824416459465319,0.2777042841335568
-0.4696983450912131,0.5819880210279976,-0.059371188789335234
-0.02716251229897386,0.7511978462819905,-0.38999029546632613
-0.20788032289955793,0.054392223126154826,-0.16763891584897905
0.05704738991723389,0.5771996547306034,0.10566781920093725
0.045526009531537945,0.6020014296661285,-0.43163219202065073
-0.3290442742309263,0.7636262345049372,0.09189179365531258
-0.05475203546660311,0.5738910281536312,-0.30582670993667854
-0.01231751107498151,0.726991383547512,-0.4131046429044549
-0.08534027830064247,0.29717918344110084,0.10348663925742368
0.34053300508924594,0.6379677813221364,0.21007482111246914
0.012691405490471902,0.8046907248755494,-0.32790966101117563
0.19102964320097943,0.6738562625273873,-0.4166993264703343
-0.11142466097830084,0.10934749272437018,0.12677372593765643
0.10647301173630126,0.06203578146213905,0.2381198273608408
0.34728328543519266,0.0032869906591974367,-0.11827925120885148
-0.4630457997124338,0.5930786736356357,-0.08846233200084357
0.33971482426757255,0.6145778984603466,-0.0910469770924337
0.3685754742337385,0.7183746715962208,0.232767191966779
-0.09290223660893447,0.17408452251410036,0.3071117304240835
0.32586286168269424,0.6145218267955368,-0.006847599830309692
0.0664456205755709,0.24156031192174565,-0.187031452959045
0.44157194313427645,0.7318563414442907,0.018838296415905433
0.12459287541851007,0.6042240560024071,0.10956398841941323
0.37190217152852717,0.8138475118910113,-0.011216398244193891
0.09460360518568256,0.06373210346395393,0.3001366129862677
-0.2133407672960027,0.5577231543958346,-0.3691295765176609
-0.16746669481612253,0.05656609931772845,-0.15937146373198124
0.12560023567267387,0.4421922339517784,-0.08659724261389537
0.3782256753256747,0.7191165848326688,-0.2350421327928713
0.3096729235440894,0.6226888199914467,-0.3063405779860921
0.1149481756070995,0.6020875839143148,0.09500682255666341
0.2339997298580846,0.03971402480378655,0.01787241028806924
0.07572203077997913,0.9122870338950225,-0.19619856865051413
-0.07459791875860627,0.5695604115946582,-0.19013848834856462
-0.23687945533512553,0.6210223193648645,-0.41083801987004026
-0.3004692865401424,0.5344073808946205,-0.06600514844969702
0.18566014561506738,0.6121929141726987,0.13599593411293226
0.1272664837501535,0.8629785773380865,0.22791687799919938
0.05241768853365635,0.9899950633924087,0.03978482194665095
0.1399220997818461,0.6177833195463336,0.26325411891890693
0.409724180889361,0.6259766380946453,-0.15218183547617106
0.2594964986329308,0.07415523119133145,0.16058679651998448
0.20869997399895024,0.6116916377452162,0.09288898561264436
-0.08093107062833213,0.9698632214222017,-0.03360158879569128
0.05923496602947106,0.11955930789414974,-0.2363838316609675
0.022993792153673625,0.5216326441886541,-0.10163537285776304
0.05288022301492648,0.9086052112672085,0.1958446008613173
0.3824175839698753,0.7507802434591107,-0.17915492672338265
-0.23571594006087218,0.5428172658452882,-0.03339636243114279
-0.21439193345177987,0.03835854240106369,0.24342890073989396
0.36282203843071464,0.009082810935159164,0.04864474270078679
-0.2651531987974819,0.011709815796545982,-0.21544830937605103
-0.25047346815985877,0.02360741008990813,0.2266232857717105
0.027005510058801162,0.18610143451697528,-0.299614673853224
-0.2656921523662796,0.022295056496223545,-0.17044451692172793
0.02435549679026882,0.8224592453987637,0.2998873717231375
0.23019401412457746,0.03872015391635453,0.05097941080278025
0.18568512035954804,0.0462660044041805,-0.2579285651722742
-0.11609193917314728,0.1624437389438955,0.2147199209305675
-0.33267596949631234,0.08351141168334511,0.03858346749755419
0.41240213072457915,0.735120265313234,-0.15771696758189568
-0.24182733555288619,0.6926876304598891,0.3806236676300868
0.23180766696210828,0.9017557506737501,0.13077220071826332
-0.2026773841393573,0.8501134309937338,0.18847782777518357
-0.02977773077768646,0.7371877863458768,-0.40357224054978874
-0.3127499035121391,0.6719499960902348,-0.30481556337644833
0.11741653780953727,0.7930361646217337,0.30032520654067874
0.10485454493249545,0.7802386893024666,-0.3553970375466956
0.428799690508292,0.7161661917173447,-0.14886611985140127
-0.2503940141452832,0.06703738683903564,0.032009652314687456
0.18188806338474495,0.7170877823234562,-0.39558604496049904
-0.16971059811367994,0.8345366805922328,-0.23173283415270998
-0.3444855023724516,0.7430655899852939,0.10716628701306441
-0.2711756575764307,0.7442620603237399,-0.25391087577048266
-0.0050192409252796805,0.5783987018581469,-0.3668160133005729
-0.27475898718091,0.044052848260288144,0.16173785545020686
-0.24557547582884146,0.6468877398901661,-0.39210017755685556
-0.0495559832245195,0.4080094197529747,0.0977084217733146
-0.16676060869235856,0.5582313010270784,-0.31872935710399664
0.21346190699417747,0.016569251108159287,0.2988657185211812
0.18649050753107405,0.6003664890942604,-0.32500655723637567
0.19844998291283114,0.04455125626806074,0.06402098915028051
0.07646358655502597,0.15578110904095405,-0.14817682439135568
-0.2689144608179294,0.767698716614605,0.23852832756401465
-0.30499075360739003,0.643735161743054,-0.33947992539578575
-0.3091191759901458,0.8069200975003515,-0.037204804765874434
-0.046722234343074626,0.7280426299979413,0.40500484843370305
0.24005504293085692,0.9224326850148135,0.0647542112823761
-0.40840168638225177,0.5987246185291207,0.27157788957246803
-0.16003111399661607,0.05793248446732492,-0.14764971558476242
-0.039026603004578865,0.07020844628670239,-0.30136915336491915
-0.11285696208910206,0.605066041054406,-0.44976694561977204
0.1011313920357815,0.6052026515808491,0.19152552326295802
-0.45553072613005646,0.6185589149504225,-0.07792321310070512
0.2851665420141668,0.6121375079258522,-0.03155286756039294
-0.10183624406703107,0.47739019169052727,0.04067355495193377
0.14445603254192146,0.33528812665266344,0.029870841317572387
-0.07922986644846085,0.5212205832976193,0.06374010270416194
-0.20845992932566962,0.6893613293257256,-0.38118235677034124
-0.05809543188135648,0.902390836838481,0.2098506116516188
0.26764003193312047,0.6147535300849049,0.0559286259116647
0.20291054330693153,0.8722066372490659,-0.2015026229502301
0.30434586435123273,0.8206767602005639,-0.1904080536992375
0.4390232025279783,0.6700559711773428,0.13759232553426168
0.022200693770331396,0.5092753516258814,-0.10539356386710814
-0.3654127721408782,0.5267797665016882,-0.10420924707046089
0.19321317605342309,0.03803547298865248,-0.26055653750177143
0.02264590568765374,0.027461200662162285,0.37278684977391413
0.2508551885323634,0.6116289890554057,-0.0027162920681986225
0.17028658973822322,0.2246831814184433,-0.05820686232882853
0.018121897389326715,0.46308805382440843,0.1311308211943225
0.12268533801219894,0.25481465417412497,-0.09261174592911944
0.04070647070099309,0.24121440795963853,-0.18145053325550375
-0.09218847770531585,0.1272711415698372,-0.2300636750861984
0.3225730121534138,0.7194627288039314,0.2766474915830265
-0.07379015154856738,0.5712435849728359,-0.25993556142725366
-0.0063426875135477595,0.5977604664313781,0.3215279942958055
-0.4427947608821249,0.5607754102029083,-0.15090520805700566
-0.06559681701925765,0.7983788543290224,-0.3242754893150099
-0.3000208631034611,0.7429521187163716,-0.21676642570253302
0.2317484749895069,0.9344266353437973,-0.0491820073312894
-0.019030946591057942,0.06678523468027243,0.26257076135395707
-0.06806218717753473,0.8717701170251225,-0.23840322934751101
0.13394757507233485,0.651466955990707,0.39261201379502897
0.2939441328531757,0.8210514749838,0.16739579267781313
0.1375973228726005,0.05631584417243685,0.1635452170162299
-0.09452704681731183,0.9560408593842478,0.07330838431203851
0.08922130951275684,0.2956995224272206,0.14335575452741417
0.04905758422753943,0.4000348386149126,0.12141519641769744
-0.1479689000054066,0.5625277747648967,0.20536204732362193
-0.3320967050724109,0.5293190081625194,0.171988935722913
0.033246504175223304,0.0772526026285709,-0.16859264014030903
0.2850554027343479,0.8624178805449139,-0.13436455608508355
-0.09750857122687556,0.853768945647396,0.25713535293032697
0.3381386163310358,0.7874274865872566,0.15386083932729205
-0.07590642849506199,0.774987592628266,-0.3526179586812665
-0.10347939757388822,0.7412713308982838,0.3905884563217902
0.04994861406815744,0.21215882069477063,0.2834719200152671
-0.1320831323461317,0.5630529044541144,-0.32742650589175004
0.03232818340057537,0.9905227407525384,0.02744185581366304
0.07067238395161564,0.9910330457696361,0.03188004266876488
0.13801545183156186,0.10561983809423836,-0.11070311957542583
-0.0661601138837051,0.8063089739420662,-0.31492362480514585
-0.05666173456271646,0.28059259471220777,-0.10073152171283531
-0.16262712277291844,0.9345160432991603,-0.03067134587867397
-0.29103454932436235,0.05977550935243134,0.08464305206902614
0.15027150040021853,0.6226659997270515,-0.42525133725193154
0.26794892427067135,0.7924147162489427,0.23103057520479858
0.23185382505770374,0.6198673875482423,0.17736544573530233
0.20439517737112373,0.6057324567680832,-0.09494906075283807
-0.4520514486259089,0.5685624158081827,0.16019354958908177
0.3010748922910132,0.7864764018776932,0.22555566837815968
-0.17630516538257543,0.8898113414322009,-0.13676780596450866
-0.0234188762369167,0.5801092703871397,-0.38717380763774123
0.35707666434118346,0.6292563026439463,-0.2662942320859975
-0.20047408328198552,0.09406222990137125,-0.15472184260291544
-0.433200833371157,0.5299845558250617,0.036518510982125815
0.36262720982140895,0.7967722460274363,0.10083615048680832
0.10841053475184124,0.17353878216068025,0.17745255860120582
0.035884226486679355,0.06852882737285845,0.3164387726444437
0.3036194291084115,0.6158802650404115,0.04526778359416561
-0.20910027767273898,0.8817265203059784,-0.09444053387893268
-0.1012463595079045,0.25491028904292906,0.11009642543876592
-0.23345457976741807,0.7524866137166547,0.3083576862715604
0.267922389095351,0.6109025382674894,-0.04945153621343251
-0.4706776120947643,0.5699093099974392,0.055970211677269274
0.18372788348485047,0.05348871882605977,0.2694536047334564
0.18342107455865547,0.6057187028065826,0.012372461922616818
0.43108391193936113,0.6807632345892242,-0.1905172737050179
-0.1647006169982548,0.5545286653590609,0.1142736569480111
0.13875569893262343,0.2826430210743263,0.10335120436826843
-0.3240198098525434,0.7350283696484307,0.21107752484184789
-0.09932972427825015,0.05416526437023902,0.2932610929301508
0.23331094399488403,0.011295156899968118,0.29761925684417256
0.19648278606435635,0.1040223351020402,-0.004818564626640334
0.386862801094544,0.6201495945435136,0.03361728744188393
-0.2621796749997851,0.06384735585487691,-0.04346756786666363
0.16423747129820004,0.05974446073570581,-0.07659062391237742
-0.45366340033574576,0.6243989427512509,-0.05582920759089343
-0.35475287253749554,0.5276705288341852,-0.03314301451945115
0.09852663348854973,0.6661738423190201,-0.4459069050713754
-0.11235587234184782,0.5647785227725531,-0.2449841635904897
0.28059706007886026,0.6107411637996458,-0.22257695780092057
-0.05793170400754208,0.384143557550505,0.09460328360360354
-0.12171332823769053,0.8055243813651344,0.307547143744037
0.1816407792166132,0.6023714129441883,-0.14635548413815613
0.24825816880340046,0.8085365118668927,-0.2542479936403551
0.04309557141143412,0.8014753052868986,-0.3289417086839911
-0.12708133945146222,0.06384377670609308,-0.09729645347421068
-0.2807039589563672,0.7104769851482812,0.3218345515073785
-0.2288574158701673,0.055685399974519406,-0.14872460045670383
-0.21618092207173178,0.1488742085625564,0.16481417085792305
-0.1285570731178475,0.25379317245530714,0.0010325795808183852
-0.3972209933394493,0.5830462394955587,-0.26084637808743405
0.08114826622129971,0.10358121453384043,-0.14431330350197302
0.22337051011453649,0.018506459347906255,-0.2534368154917637
0.11351770520496511,0.6065455987137617,0.17341022985457488
0.06616669243691375,0.12979728823167644,0.19066255183822844
0.23267695971016006,0.11844616714841331,0.17221147214037286
-0.09234853605140927,0.5909786609506349,0.4020082117863183
0.07483960187004551,0.41830769253480776,0.11088062452728162
-0.1432925681129754,0.9362098136071537,0.05806542979023503
0.1794197344791816,0.1729966670982825,-0.06265183844957306
0.036128050714042834,0.27992636519790015,0.16334672547579346
0.22714539493438318,0.02694773632876567,0.267256341762375
0.25540472477152504,0.6089559026724712,-0.23039715559685672
-0.15782183015470413,0.8704237701653766,0.2002988271949325
0.22351671403703474,0.07742650993970464,-0.12499122405263528
-0.40394313574140484,0.6736775451532709,0.16138141234361236
-0.42559984113232135,0.594032088277698,-0.20251985820554166
-0.2103957931876765,0.5725183935668001,0.4088962451298546
-0.016537490475507687,0.22348146493501267,-0.13883875893365852
-0.4025955335691328,0.6435664394404633,-0.18509932967940407
-0.13610373570624307,0.06601880503328046,0.1800309882051726
-0.21418501519895938,0.09569171385266777,-0.1193389794877755
0.02138042560990703,0.5843428452456065,-0.14066144788552976
0.20288000552484378,0.11920071136376145,-0.1371632161590592
-0.07946345703699961,0.5656480547086947,-0.054770105518804096
0.16407485546779774,0.12969487196791538,-0.08846513166461899
0.18057711073695296,0.7817124987979219,0.2888445444630288
-0.3832686237149287,0.7205200458198674,0.01794406287198385
-0.0029722119991682505,0.5023550427829834,0.1280978488611966
0.22723792767100753,0.03764660490006438,0.1182743688277441
-0.20316220524112394,0.6077591142442319,-0.42925223199011836
-0.4709891430756964,0.5920573820027694,-0.019631678609710164
-0.273988727097682,0.7996468350091899,-0.15515238106371232
0.21348911599278406,0.7328362020862507,-0.37008764209511985
0.4345698997524176,0.7266556035026596,0.07842143275494948
-0.19390290003005,0.06148310372671986,0.17821682372269287
0.13454209463633676,0.5966182934563357,-0.2243100559044077
-0.04583469136331666,0.32687142212377707,0.1261499551129781
-0.14537633524049282,0.8678157217824402,0.21427137007329333
0.2694095364134626,0.07519081272554551,0.13464236210394542
-0.30800442996759814,0.03317532096062974,-0.08905049777917226
-0.01219348720871443,0.14785284831928364,0.1942333221578951
-0.061893912077760974,0.623998820179837,-0.4619720889210373
-0.010604732382913842,0.4136696374996214,0.1177999406612515
-0.08908636326820198,0.8188743063521369,-0.2911890016483697
-0.10747437726225836,0.06192761823511626,-0.14670191147756736
-0.325208798466988,0.6258123888453708,-0.33290305461860714
-0.4398258798465478,0.6430707775136657,-0.06488085925416934
-0.11499009540404914,0.8783973297527233,-0.21056254946382896
0.015146316449389817,0.9802611173839418,0.07912262529650056
-0.09035732676437999,0.7644012057984583,-0.36431757798215075
0.1487203802089645,0.598858132150521,-0.16629685040708414
-0.03302878154407402,0.12385658514715844,0.318422814692135
-0.04138950883020257,0.18075775238682024,0.18114684890378668
-0.3598886627014315,0.6146404165370065,-0.2962096855214763
-0.3174079414679717,0.5417772365883279,-0.30511801737008115
-0.4608558937265575,0.5505074895803224,0.06651826680460247
0.3566382186348352,0.013127970599600454,0.006205641993665217
0.20980839859744635,0.927043111708467,0.12048442800158662
0.3979212433837194,0.7847185280669529,0.010243709228675024
0.13811836321027487,0.790184477394254,-0.32669430400664873
-0.2371764501823373,0.15888942466314576,0.14702526939978638
0.42638745686411544,0.663210043907102,0.15469702447089415
0.3919783581179146,0.7856315372517275,-0.03772161668824177
-0.09174211522086728,0.02615800315017207,-0.2979745007437241
0.1502989035052395,0.24958866956658715,0.11047236391734848
-0.04239672773495719,0.9407786375463548,0.1607211810342399
0.1267182274725477,0.47998186907161916,-0.02935451182583039
-0.37342698702183896,0.5317986528102779,0.22919068179734506
0.1633225816502864,0.06861822793733334,-0.07904054649458234
0.1729294402604316,0.6292441515613658,-0.4211529057822856
0.09093386506448117,0.5648039038946473,-0.06990038279838297
0.4419391900226378,0.6288409589903875,0.015248234592273882
0.0983040634694138,0.9624457727309564,-0.11473984070368451
0.2456546911630471,0.6162553718438545,0.10339980567693943
-0.42313661791073115,0.614290582602473,0.22496932133344005
-0.04365741336667851,0.329546245258321,0.3061174427797836
0.22738988622593315,0.9441385564152331,0.007691737177655405
-0.22845859566268467,0.1499064804781937,0.15685404374727321
0.05740288246905267,0.26147881305619425,-0.1800206058210819
-0.4644808858492037,0.5868112704373724,-0.08627136386436476
0.2015235805206184,0.1230898329991856,0.18099360650202945
0.374902675416028,0.7709578248415534,0.1385527307000839
0.0389257717122788,0.06871300115112806,-0.27753838889259064
0.20550331370164582,0.7913156385803303,0.26809464113388
0.13816189552574812,0.0683097795920262,-0.10437530920198518
0.09040901204630844,0.593392608701305,-0.13422603846601805
0.124921118097813,0.36479640785793255,-0.0318328383431738
0.011276746483801406,0.07645392227826536,-0.1561081078377742
-0.11719778627622297,0.560067590560091,-0.04508712390562986
-0.13051993666717995,0.05701624327495722,-0.17304382715988417
0.01327506298888247,0.16178844697662986,0.2671258939485085
0.10352818632878565,0.3719370453741238,-0.05682708966100127
0.2759761045336211,0.030083023300144333,0.06649738081246034
-0.27970169954198726,0.7130406840418919,0.3189625818957219
-0.02176020929752847,0.2323105528216859,0.25050970858035637
-0.30988619565002906,0.5324649315763802,0.0821448787584351
0.008842882434939817,0.1026264308194041,-0.1552966672893303
0.08892098622264412,0.6003093898751706,0.14400032098849025
0.22140227008195323,0.9308939976296192,0.08609852570861709
0.10930306769828363,0.4800196466801435,0.10666935409109446
-0.07294525482134517,0.6983261238525241,0.4293077942464253
-0.042505796444410035,0.8627811571408518,-0.25990320377343196
0.03516765179375145,0.073797381251442,-0.21790989133178962
-0.027286225385408668,0.9834747096447325,0.014547978264824856
-0.4621693051270761,0.6204742288209825,0.023913627133857952
-0.4160247218426794,0.6683426381802202,0.14485741699871327
0.464473962093414,0.699923459544597,0.01771195313204653
-0.2303225934114649,0.55737778435551,0.35374449082494164
0.04373229083900415,0.5591241563956157,0.11286919477213152
0.026561142127224366,0.6471557856119292,0.43602260183674724
0.21901912291646908,0.7788611853390534,0.27484639335689687
0.14116609152328669,0.9662176904989845,0.08351979981194628
0.43460463723309267,0.7366786300395746,-0.04078733653329454
-0.10812797043919134,0.563358450570257,-0.14473576410381966
-0.16788031173075246,0.8369139226881372,-0.23004861958841075
0.05091200500455892,0.19694406345229648,-0.18936986646742085
-0.04119995864189339,0.36421588846771935,-0.07896676510135361
0.03699273278502591,0.07525993810315751,0.23547904861588004
-0.030108459319365632,0.9514453585299247,0.15546392642368909
0.07095630387140921,0.9926168612213592,-0.011859888613924167
-0.057126650667801045,0.2612233292380124,0.15092093843495896
-0.03633270689396512,0.5884956177171005,-0.42547709530230826
-0.29109434429555003,0.758973205238842,0.2195655374624576
0.05489357157859924,0.07212775040159643,0.19317731146690292
0.1366449828209702,0.06750815983053728,-0.21382413753706192
0.4097059874910111,0.7671801018704042,0.030267998916949417
0.024305428015828433,0.6053511846907895,-0.4400624374582801
-0.012311124378472647,0.24457981123089406,0.24478733291782456
-0.4187776973290635,0.6496380571321082,0.17597885300038046
0.11775207615458516,0.4394174612473268,-0.0954625514451106
-0.21307598410782524,0.8883837323482678,-0.05686551727479343
-0.16135605225515426,0.6584809322770249,-0.4317023735439329
-0.19176263210729705,0.5720633832267228,0.3993789206887989
-0.026201392881510743,0.7276245598209983,0.40438219724201213
0.2962899332435517,0.024640187101209823,0.10374490527259152
-0.16814692754244853,0.9274979113810217,-0.003762563620859265
0.10407969963674261,0.5946827824211509,-0.1409600784653997
0.13601219300880624,0.6209213239429547,0.3066900735089613
-0.34848061205730374,0.5279196158516526,0.07870698677320027
0.01228425816257954,0.44154500693410326,0.12404757753272053
0.003576754539845909,0.21587908518065685,-0.14671136828473716
0.20888785553916273,0.8951359590460193,0.1539790092541322
0.19551916555682497,0.17850364446065642,0.2076861642053774
0.008578342641452283,0.49019969197740915,0.1367429138671084
0.07103604441558595,0.7093395412079624,0.3963479178516318
0.17095636808963094,0.6040242905682254,-0.010213805992065839
0.25405227230780797,0.09125255405796542,0.204318428083935
0.10965910888814959,0.5944424093722058,-0.2119406655482896
0.19834467105386228,0.9340763709832373,0.11202549141716678
0.10292895174319129,0.6213820383403305,0.37234516884529245
-0.01243136523997833,0.5880406118758841,-0.41893085185183876
0.25699888324791575,0.008220281380942673,-0.2784525916546699
0.15227145342483334,0.44279525207304893,-0.034449384260619366
-0.23049544544172215,0.6996998020411132,-0.35148577572355183
-0.05914211725198649,0.4550045717362416,0.09188735348148114
0.2591271241178321,0.6535222449478248,-0.3866494185582142
-0.06908680212479404,0.5923168560569428,0.3848232220111067
-0.3962049242938864,0.5273556961526209,0.11365363730343006
0.04842186464194968,0.5638509371661597,0.11063410644562496
-0.04443441629342606,0.524134621619115,-0.07628577873230116
0.14966027968669832,0.6874213349569758,0.3786461486061716
-0.3611493488883783,0.526854020913513,-0.0488800663861777
0.12219059135785738,0.2721129369510223,-0.08365311960682847
0.31897130767316517,0.023392370722364365,-0.03310111075730923
-0.1537471425008078,0.1553003449090234,0.003297163573169948
0.09933541865601452,0.6138231831698218,0.2949722802234079
0.08185930271716932,0.07388261104728627,-0.20178937781148504
0.18136087180454513,0.775300669859823,-0.33193111062434716
0.2146200312430424,0.03967149384502194,0.195982450222523
-0.10583883771450595,0.5674958276394224,-0.36818626723868364
-0.1049541562456959,0.934443282243685,-0.1257042970128911
0.1477077098165543,0.33179920959564,0.02279838946907029
-0.26748777628369025,0.008387471367573278,0.2738406041472965
0.18212621726116746,0.058849700641393096,0.06902985650253055
-0.08357116268976889,0.9633051075344815,0.05359094158632226
0.3066045359916512,0.02357244926140661,0.09079057937098219
-0.13194107822619364,0.182626638415346,0.1032155756166174
0.22154537294736612,0.0930748454912688,0.22418421524159027
-0.3624101309353972,0.741427210709585,0.027332849052055817
-0.4167032804320882,0.6730050285816146,-0.07835898685583925
-0.05510147185875601,0.7540819482988839,0.3801966610004127
0.14887089840186146,0.12625284532922226,0.18635082365931674
-0.30324968186556595,0.7097137286401585,0.2879787020187617
-0.08688723736311518,0.9603635077533036,0.06323044512916587
0.2720631778920506,0.610081919799768,-0.08210128879292378
0.4172884388570986,0.7127803751341801,-0.1845273377616964
-0.27924707271266447,0.7787406145640523,0.20822393114801616
-0.08313007069622798,0.42055372430991517,-0.0017672989955499555
-0.13482694257040861,0.5574355184905749,-0.005173985385289286
0.011140331928230413,0.8227552697334052,0.3012429506004881
-0.36374964288545353,0.6392771741346063,0.31016031342497985
0.04361517528116532,0.23469119397505372,-0.18241609278954432
-0.020443359566570448,0.013659815244482218,-0.3740341811916368
0.22445842314846862,0.6101301972386274,0.0269614550655832
